ncols         537
nrows         29
xllcorner     3.55041666663
yllcorner     50.5145833333
cellsize      0.00083333333333333
nodata_value  -9999
40.999 40.999 40.999 40.999 40.999 41.999 41 39.001 39.001 40 39 38 37 36 36 35.001 35.001 35 35 36 35 33 33 32.001 32 31 31 31.999 31.999 31.999 33 34.002 33.002 32.002 32.002 32.001 33.001 34 34.999 36.999 37.999 38.999 38.999 39.999 40 39.001 39.001 39.001 39.001 39.999 39.999 40 40 41 41 42 43 44 44.001 45.001 46.001 48 48 47.999 47.999 46.999 46.999 47.998 47.998 46.999 46.999 46.999 47 48 48 47.999 47.999 48 48 48.999 49 48.001 48.001 47.001 47 46 46 45 44.001 43.001 43.001 43.999 43.999 44 43.999 42.999 42.999 41.999 42.999 43.999 42.999 42 42 42.999 43.999 44.999 45.999 47.998 47.998 47.998 48.999 51 55.997 60.996 58.998 56 56 56.001 56.001 57 57 57.001 57.001 57 57 58 57.999 56.999 56.999 56.999 56.999 57 57.999 58.999 59.999 61 62 63.001 65 67.001 69 71 71 70 70 70.001 70.001 69.002 69.001 68 68 67.001 67 66 65.001 64.001 63.001 62.001 62.001 62 62 61.001 61 60 60 59.999 59 58 59 60.999 60.001 58.003 57.002 56.001 56.001 56.001 56.003 55.006 56.005 57.005 59.005 61.005 61.003 61.002 60.001 58.998 58.998 57.998 58.998 59.998 61.999 65 63.001 60.002 61.002 63 61.001 58.001 57.001 56 55.001 54.003 56.003 59.002 57.003 54.004 54.002 55 55 54.001 54 53 53.001 54.001 54.001 54.001 55 56.999 56.999 57 59 61 60.001 58.003 58.003 57.005 58.004 60.002 62 64 64 65 65 64.001 65.001 65.999 64.999 63 62 60.001 59.001 58.001 58.001 57.001 57.001 57.002 57.001 57.999 56.999 55.001 56.001 58 59.999 61.999 62.999 64 66 68 68.001 69.001 69.001 70.001 70.001 70.001 69.001 68.001 67 65 65.001 66.001 66.001 66.002 67.002 69.002 70.002 71.003 72.002 73.001 74.001 74.999 73.999 72.999 72 70.001 70.001 70 69.001 68.001 68.001 68 68 67.001 67.001 67.001 67.001 67.001 67.001 66.001 67.001 68 72 77.001 78.001 78.999 76.998 74.995 70.997 66.998 65 63.001 63.001 63.002 64.002 66.001 66.001 66.001 66.001 66.001 66.001 67.001 68 69 69 70 70 70.001 71.001 73 74.999 76.998 76.998 77.998 76.999 76 77 78.999 79.999 80.999 80.999 79.999 79.999 78.999 78.999 77.998 77.999 77.999 77.999 77.999 77 76 76 75 75 74.001 74.001 74.001 74.001 75 74.999 73.999 72 70.001 70.001 71 70.001 69.001 69.001 70.001 70.001 69.001 69.001 69.001 69.001 69 69.001 70.001 69.001 68.001 68.001 68 68 68 68 68.999 68.999 69.999 68.001 65.002 65.001 65.001 69.997 74.994 70.997 65.999 65.999 65 65 65 65 64.999 64.999 64.999 64.999 64.001 63.001 62 62.001 63.002 63.002 62.001 62.001 61.002 62.001 63 64 65 65.001 65.002 67.001 68.999 68.999 68.999 67.999 66.001 67.001 68.001 68.001 68.002 70.001 72 71.001 70.001 70.001 69.001 70.001 72 72.001 73.001 73.001 73.001 72.001 71.002 71.002 72.002 72.002 73.001 73.001 73.001 73.001 74.001 74.001 74.001 75.001 75.999 75.999 76 75.999 74.999 74.999 74.999 74.999 75 75 76 76 77 77 77 77.001 78.002 79.001 81 81 80.999 80.999 81.999 82.999 83.999 84.999 86.999 86.999 85.999 85.999 85.998 84.998 83.998 82.999 81.999 81 79.002 80.001 81.001 81.001 81 82 83.999 84 85.001 86.001 87.001 87.001 87.999 87.999 86.999 86.999 86.999 86.999 85.999 85.999 86.999 86.999 87.999 88.999 89.999 90 90.001 91 91.998 90.999 90 91 92 92.999 93.999 95.999 98 100 102 102 101 102 103 103.001 103.001 103.001 103.999 102
39 38.999 38.999 39.999 40 41 41 40.001 40.001 39.999 38.999 37.999 37 36 36 36 36 35.001 35 35.999 34.999 33 32.999 32.999 32 31 31 31 30.999 29.999 32.999 36.999 36.999 36 35 34 34 34.001 34 34.999 35.999 37.999 37.999 38.998 39.998 40.999 40.999 40.001 40 39 39 40 40 40.999 40.999 41.999 42.999 44 44.999 45.999 46.999 48.998 47.999 47 47 46.001 46.001 45.001 45.001 46.001 46.001 46.001 47 48 48 47 47 48 48 47.999 48.999 49.999 49 48 47.001 46.001 46.001 45.001 45 44 43.999 42.999 42.999 43.999 42.999 41 41 41.001 41.001 42 42 42 42 41.001 42 43.998 43.998 44.998 44.998 44.999 47.998 50.998 51.998 53.999 54.999 55.999 55.999 56.999 56.999 56.999 57 58 58 57 57 57.999 56.999 55.999 55.999 55.999 56 57 57 58 59 60.999 62 64 66 68.999 69.999 70.999 71 70.001 70.001 71.001 71 71.999 70 68.001 68.001 68.001 67.001 66.001 66 65 64 62.999 62.999 62 62 62 61 60 60 59 59 58.001 59.001 60.001 61.001 63 60.002 57.003 57.004 58.005 61.004 65.004 65.004 65.003 67.002 69 67.001 65.002 61.003 56.004 56.005 55.006 56.005 57.004 61.002 66 65.001 64.001 64.001 63.002 62.003 60.005 58.005 56.006 57.005 59.003 61.002 63.002 62.002 60.004 58.003 55.003 55.002 55 54 53 54.001 56 56.001 55.002 55.001 55 55.999 56.998 59 61.002 62.002 63.002 64.002 66 65 63.001 63.001 64 64 65 65 65.999 65.999 65 64 62.001 62.001 61.001 60.001 59.002 59.001 59.001 59.001 60 58.001 56.002 56.002 56.001 57.001 58.001 59.001 60.001 62.001 64.001 66 68 69 70.999 71 72 72 71.001 70.001 69.001 67.002 65.002 66.002 67.001 68.001 69.002 70.001 72 74 76.001 76.001 75.001 75 73.999 72.999 71.999 71.999 70.999 70.999 70 70 69 69 68 68 67.999 67.999 67.999 67.999 67.999 67.999 67.999 67.999 68.001 72.999 78.998 78.997 77.996 72.997 66.999 65.999 64 64.001 64.001 65.001 66 67.001 68.001 68.001 68 68 67.999 67.999 68 68.001 69.001 69.001 70 70 71 72 73.999 73.999 73.999 73.999 74.999 74.999 75.998 76.998 77.999 77.999 78.999 78.999 79 78.999 77.999 77 75.001 76.001 77 77 77.001 77 76 76 75 75 75 75 75 75 75.001 74.001 73.001 72.001 71.001 71.001 71 71 71 71 70.999 70.999 70 69.999 69.999 69.999 69 69.999 70.999 70 69 69 68 68 68 68 67.999 67.999 68.999 68.999 67.999 66.999 65.998 65.998 65.998 64.999 64 64.001 65.001 65 64.999 64.999 63.999 63.999 64 64.001 65.002 64.002 62.002 64.001 66.999 65.999 64 64 64 64 63.001 64.002 65.002 67.002 69.001 69.001 68 68 67.001 67.001 68.001 69 69.999 69.999 70.999 71.999 73 72.001 71.002 71.001 71 72 73.001 73.001 74.001 74.001 74 74.001 74.001 74.001 74.999 74.999 74 74 73.999 73.999 74.999 74.999 75.999 75.999 75 75 75.999 75 73.001 73.001 73.001 74.001 75.001 75.001 76.001 76.001 77 77 77.001 79 80.999 81 81.001 81 80 80 81 82 83 83.999 84.998 84.998 83.999 83.999 82.998 81.999 80.999 81 80.002 81.002 82.001 82.001 83.001 82.002 81.002 82.002 83.002 84.001 86 87 88 87.999 86.999 86.999 85.999 85.999 84.999 84.999 84.001 84.001 85.001 85.001 86 87 88.999 89.999 91.999 90.999 89.001 89.001 90.001 91.001 92.001 92.002 93.002 95.002 98.002 100.002 102.001 102.001 101.001 102 102.999 103.999 104.999 103.999 102 101.999
38.999 37.999 37.999 38.999 39.999 40.998 40.999 42 40.999 39 38 37 37 36 36 36 36 35.999 35 34 33.001 32.001 32.001 32.001 32 31 31 31 30 29 31.998 34.996 34.997 35.997 34.998 33.999 33.999 34.998 33.999 33 34.999 36.999 35.999 34.999 36.998 39.996 39.997 40.998 39.998 38.998 38.998 39.998 39.998 38.999 40 41.001 42.001 44.002 44.002 45.002 45.002 46.002 46.002 47.001 47.001 47.002 47.002 46.002 46.002 47.001 47.001 47.001 47.001 48.001 48.001 47.002 47.002 48.001 48.001 47.002 48.001 49 48.999 47.999 48 47.001 47.001 46.001 45.001 44 43.001 41.001 41.001 42.001 42 41 41 41.999 41.999 42 42 42 42 41.999 41.999 41 41 41.999 42 43 44.999 46.999 48.999 51.999 52.998 53.998 53.998 54.998 54.998 55.997 56.998 57.999 57.999 56.999 56.999 55.999 55.999 54.999 54.999 54.999 55.999 56.999 57 58 59 60.001 62 64.999 65.999 67.999 68.999 69.999 70.999 72 72 71.999 70.999 69.999 69.999 69 69 68.999 67.999 66.999 65.999 65 64 62.001 62 61.999 61.999 61.999 61 60 60 59 59 60 60.999 61.999 61.999 62.998 62.999 62.002 64.002 66.002 69 72.999 71.999 70.999 69.999 68.999 68.999 69 66.002 63.003 64.002 66.001 65.002 64.003 65.002 66.001 66.001 66.001 66 65.999 67.001 68.002 67.003 66.004 66.003 65.002 65.002 66.001 66.001 66.001 63.002 60.002 58.002 55.002 54.002 53.001 55 56.999 56.999 57.998 56.998 55 55 54.002 59.001 64.001 65 66.998 66.999 66.002 65.001 63.999 63.999 64 64.001 65.001 65.001 64.002 64.001 65 64.001 63.001 63 62 62.001 62.001 61.002 60.002 60.001 60 60 60.001 59 57 57.999 58.999 59.999 61.999 63.999 65.999 66.999 68.999 68.999 69.999 70.999 72 72.001 73.001 72.001 71.002 70.002 69.001 69.001 68.002 70.001 72.001 72.002 73.003 75.002 78 77.001 76 75 73 72 71 71 70.001 70.001 70.001 70.001 69.001 69.001 68.001 68.001 67.002 67.001 67.001 67.001 67.001 67.001 66.001 67.001 69 71.998 75.996 73.997 70.997 67.999 64.001 64.001 64 64.999 65.999 65.999 65.999 67.998 69.998 68.998 67.999 67.999 67 67 68 68.999 69.999 69.999 70 70 70.999 71.999 72.999 72.999 72.999 72.999 72.999 72.999 73 73.999 75.999 75.999 77 77.999 78.999 78 77 77.001 77.001 77.001 77.002 77.002 78.001 77.001 76.001 76.001 75.001 75.002 75.002 75.002 75.001 75.001 75.999 74.999 73.999 73.999 73.001 72.001 71 71 71 71 70 70 69.999 69 68 68.001 69.001 69.001 69.999 69.999 68.999 68.999 68 67.999 67.999 67.999 66.999 66.999 67.999 66.999 65.999 64.999 63.001 63.001 63.001 63.001 63.999 64.999 65.998 64.999 63.999 62.999 61.999 63 64.001 66 67.999 67 66 65.999 64.999 64.999 63.999 63.999 64 64.001 65.001 66.999 68.999 69.999 70.999 69.999 68.001 68.001 69.001 69.001 70.001 69.002 68.003 69.002 70.002 71.002 73 73 74 73.001 71.001 72.001 74 74 75 75 74.001 75 75.999 75 74 74 74 73.999 72.999 72.999 73.999 74 75 75 75 75 74.999 74.999 75 75 74.001 75 75.999 75.999 76.999 76.999 76.999 77 78 78.999 79.999 80.999 82 81.001 80.001 80.001 81.001 82.001 82.999 82.999 81.999 81.999 82.998 81.999 80 80.001 79.002 81 83.999 83.999 83.999 84.001 85.001 85.001 85.002 85.001 86 85.999 85.999 86.998 87.998 86.999 85 84.999 83.999 83.999 84 84 85 86 87 87 86 86.999 87.999 88.999 90 90.001 90.001 91.001 92.002 93.002 94.002 95.001 97 99 102 103.001 104.003 104.002 103.002 102.001 101.001 102 102.999 101.999 101 101
37.999 37.001 37.001 38 37.999 37.999 39.998 41.996 39.997 37.999 37.999 36.999 36.999 35.999 35.999 35.999 35.999 34.999 34.999 33.999 33.999 32.999 32.999 32.999 31.999 30.999 30.999 30.999 29.999 28.999 28.999 28.999 29.999 30.999 31.999 32.999 32.999 32.001 32 32.999 33.998 34.998 34.998 33.999 33.999 33.999 34.999 36.999 36.999 36.001 36.001 37 37 38 39.999 41.999 43.999 46.998 47.999 49.001 49.001 49.001 49.001 48.001 49 49.999 49.999 49.001 49.001 49.001 49.001 48.002 49.001 50 50 50 50 49.001 50.001 50.999 50 49.001 48.001 47.002 48.001 49.001 48.001 47.001 46.001 44.001 44.001 43.002 43.002 43.001 42.002 41.002 41.001 41.001 41.001 42.001 42.001 42 42 41.001 41.002 41.003 41.002 41.001 42.001 43.002 44.001 46 47.999 49.999 49.999 49.999 50.999 51.999 51.999 50.999 52.999 55.998 55.998 55.998 55.998 54.999 54.999 53.999 53.999 53 53.999 55.999 56.999 57.999 58.999 60.999 61.999 63.999 64.999 66.999 68 69.001 70 71.999 71.999 70.999 70 69 68.999 68.999 68.998 67.998 66.999 65 64.999 65 64 63 62 61 61 61 61 60.001 60.001 59.001 59.001 59.999 59.999 60 60 59 61.998 65.996 66.996 68.996 69.995 70.995 70.996 69.998 68.999 68.001 68.001 68.999 68.999 67.999 67.999 68 68.001 69.001 69.001 68.001 68 66.999 66.001 65.002 68 71 72 73 71.001 69.001 68.001 67.001 67.001 67.001 66.001 64.002 62.002 59.004 57.003 55.002 55.002 55.001 55 54 54.001 54.002 55.001 57 60.999 65.998 64.998 62.998 65.998 68.999 66 62.001 63.001 64.001 65.001 67 67.001 67 66.001 65.001 65 64 63.001 62.001 63.001 63.999 63.999 63.998 61.999 60 59.999 60.998 59 57 57 58 59.001 60.001 62 65 66 68 68.001 69.001 70.001 72 73.001 74.001 74.001 74.001 73.001 71.002 71.002 71.001 72.001 74.001 76.001 79.001 79.001 79 78 76.001 75.001 73.001 72.001 71.001 71.001 71.001 71.001 71 71 70.001 70 69.999 69.999 70 69 68 67.999 67.999 67.999 67.999 67.999 68.999 68.999 68.999 67.999 66 65.999 64.999 65 64.002 64.002 65.001 65.001 65.001 65.001 66.001 66.001 66 66 67 67 67.999 67.999 68.999 68.999 69.999 69.999 70 70.001 71.001 71.001 71.001 71.001 71.001 72.001 73.001 73.001 74.001 75.001 77 77.001 78 78 77.001 78.001 79 79 79.999 79.999 79 78.001 77.001 77.001 77.001 78.001 78.999 77.999 76 75.999 74.999 74 73 73 73.999 72.999 70.999 70.999 70.999 70.999 69.999 69.999 68.999 68.999 67.999 68.999 69.999 69.998 68.998 67.999 67.001 67.001 67.999 67 66.001 66 65.999 65.999 66 65.001 64.002 64.002 64.001 64.001 64.001 64 63 63 62.999 63.001 63.003 62.003 61.002 63 64.998 65.998 66.999 66.999 66.001 65.001 64.002 63.002 62.002 63.001 64.001 65 66 66.001 67.001 68 69 69 69 69 70 70 71 72 73.001 73.001 74.001 74.001 73.001 73.001 74 74.001 73.002 73.002 74.001 74.001 75 75 75.001 75.001 75.001 75 73.999 73.999 73.999 73 72.001 72.001 73.001 74 75 74.999 74.999 74.999 74 74.001 75.001 75.001 75.002 75.001 74.999 75 76 76 75.999 76.999 77.999 78 79.001 80.001 82 82 82 82 82.999 82.999 82 81 79.999 79.999 79.999 80 80.001 81.001 82 82 82.001 82.001 83.001 85 86.999 87 88 87.001 86.001 85.001 84.001 84 84.998 84.999 84 83.001 82.001 83.001 84.001 84.001 85.001 86.001 87.001 87.001 86.001 86 85.999 87.999 90 91.001 92.001 93.001 95 96.001 97.001 97.001 97 99 102 105 109 108.001 106.001 104.002 102.002 102.001 101.001 101.001 100.999 100.999
37.002 38.002 38.002 38.001 37.002 36.003 36.002 35.001 35.001 35.999 35.999 35.999 35 34 34 35 35 34 34 33 33 32 32 31 30.999 29.999 29.999 29.999 28.999 27 26.999 26.999 27.999 29.998 30.998 31.998 31.999 32.999 32 31 31 31.999 31.999 31.999 31.999 32 33 35 36 37 37 36.999 36.999 37.999 38.999 39.999 41.998 43.998 46.997 49.997 49.998 49.999 49.999 48.999 49 49.001 49.001 50 50 50 50 51 51 50.001 50.001 50.001 50.001 51 51 50 50 50.001 50.001 50 50.001 50.001 50.001 49.002 48.002 46.003 46.002 46.001 46.001 45.001 45.001 44.001 43.001 42.001 43.001 43.999 43 42 42.001 43.001 44 45.998 44.999 43.001 44.001 46.001 46.001 45.999 46.999 48.998 48.998 47.999 48.999 49.999 49.999 49.999 50.999 52.999 52.998 51.998 51.998 52.998 52.999 52.999 52.999 53 53.001 54.001 55.001 56.002 58.001 60 61.001 62.001 64 66 67.999 69.999 69.999 69.999 69.999 70 69.999 68.999 67.999 66.999 66 65 65 64 64 64.999 63.999 62.999 61.999 60.999 60.999 60.999 60.999 60.999 60.999 60 60 59.001 59.001 60.001 60.001 59.001 59.001 59.999 60.999 61.999 61.999 62.999 64 66 68 70.001 69.001 68.001 67.001 66.001 67.001 68.001 69.001 71 71 70 68.001 66.001 67.001 68.001 69.001 71 71.999 72.999 72 71.001 69.999 67.998 67.998 67.998 67.999 67.001 66.001 65.002 62.002 59.002 58.002 56.002 55.002 54.002 55.002 57.002 57.001 57 59.998 62.997 61.998 60 62.998 66.995 64.997 63 64.001 65.002 66.002 68.002 68.001 67 67 66.001 65.001 64.001 64.001 63.999 63.999 63 62 61 60 59 59 58.001 58.001 57.001 57.001 58.001 60 62 63 64.999 66 68 68.999 69.999 71 73 74 75.001 75.001 76 75.001 74.001 74.001 73.002 74.002 76.002 78.001 81 80 78.999 77.999 76.999 76 74.001 74.001 73 73 73 72.001 71.001 71 70.999 70 69.001 69.001 70 69 68 67.001 66.001 66.001 67 67.001 68.001 68.001 67 67 66.001 65.001 64.002 65.002 67.001 67.001 67.001 67.001 66.001 66.001 67.001 67.001 66.002 66.001 67 67 67 67 67.001 68.001 69.001 69.001 69.999 70.999 72 72 72.001 72.001 73.001 73.001 74.001 74.001 75 76.001 78 78 77.999 78 79.001 79.001 79.001 79.001 79.001 79.001 79 79 78.001 78.001 79 79 78 77 75.001 75 73.999 73.999 72.999 72.999 72.999 71 69.001 69.001 70 69.001 68.001 68.001 67.001 67 66.999 66.999 68 67 66 67 68.001 68 67 67 67 66 64.999 64.999 65.999 67 68.001 67.001 66 65.999 64.999 63.999 63 63 62 64.999 67.998 66.999 65 63.999 62 63.001 65.001 66.001 67 66.999 66.998 65.999 65 65 65 65 65.999 66.999 68 68 69 69 69.001 69.001 70 70 70.999 71.999 74 75 76.001 76 74.999 74.999 74.001 75 76 76 75.001 75.001 75 75 75.999 75.999 75.999 74.999 73 73.001 73.001 73.001 73.999 73.999 73.998 73.998 74.998 73.999 73.001 73.001 73.999 74.999 76.998 76.999 77.999 76 74 75 76.001 76.001 75.002 75.002 76.001 78 80 80.999 81.998 81.998 81.999 81.999 80.999 80.999 81.998 80.999 79 79 78.001 80 81.999 82 82.001 82.001 83.001 83.001 84.001 85 86 87 88 88 87.999 87 85.001 84.001 82.002 83.002 84.001 84.001 84.002 84.001 85 85.999 86.999 88 89.001 89.001 88.002 86.002 84.002 87 89.999 92 94.001 95.001 96.001 97.001 98.001 98 97 99.999 102.999 106 109.002 109.002 108.002 107.002 105.002 104.001 103.001 102.001 100.001 100.001
40.001 41.001 41.002 40.003 40.003 41.003 39.002 37.001 36.001 35 35 35 35 34 34 34.999 34.999 33.999 33.999 32.999 32.999 31.999 31.999 31 30 29 29 29.001 28.001 26.001 26.001 26.001 26.001 27 27 28 29.999 31.998 31.998 30.999 30.999 29.999 30 30.001 31 32 33 34.999 35.999 36.999 36.999 35.999 35.999 36.999 36.999 37.999 38.999 39.999 41.999 44.998 46.998 48.998 48.999 48.001 49.001 49.999 49.999 50 50 50.001 50.001 51.001 51.001 52.001 51.999 51.998 51.998 50.999 50.999 50.001 50 50.999 50.999 50.001 51 51.999 51.999 51.999 51.999 51 50 48.001 47.001 46.001 46.001 45.001 45 44 44 43 42.999 41.999 42.999 43.998 43.998 42.998 43.999 45 45.999 47.998 46.998 44.999 44.999 44.999 45 46.001 47 47.999 47.999 47.999 48.999 50.999 49.999 49.001 49.001 49.999 50.999 51.999 51.999 52.999 54 56 57.001 59.001 60.001 61.001 62.001 63.001 64.001 66.001 67.001 67.999 67.999 68.999 68.999 69.999 68.999 67.999 66.999 65.999 65.999 64.999 64.999 63.999 63.999 62.999 61.999 60.999 60 59.001 59.001 59.999 59.999 59 59.001 60.001 60.001 60.001 61.001 61.999 61 60 60 59.001 59.001 60 59.999 60.998 63.996 66.996 68.995 71.995 70.998 70.002 69.002 68.002 69.001 69.999 70.999 71.999 70.999 69.999 69 68.001 68.001 69.001 69.999 70.998 70.998 71.998 71.999 71.999 69.001 65.004 65.002 64 66 68 68.001 69.001 66.001 63.001 62.001 60.002 59.001 57.001 58.999 60.998 58.999 57 56.999 57.999 58 59 59 58.999 60 62 65 68 69 71 69.001 67.002 67.001 67.001 67.001 66.001 65 63 63 63 62 61 60 58.999 58.999 59 59 59.001 59.001 60.001 61.001 63 63.001 64.001 66 67.999 67.999 68.999 70.999 73 74 75.999 76 76.001 76.001 76.002 76.002 77.001 78.001 79.001 80.001 81.001 80.001 78.001 77.001 76 76 75.999 75 73.001 73.001 73.001 73.001 72 71.001 70.001 70.001 70.999 70.999 70 69 68 67.999 66.999 66.999 66.999 68 70 69.001 67.001 67.001 67.001 67.001 67.001 68 69 69 68.001 68.001 68 68 67.999 67.999 68.999 67.999 67.001 67.001 67.001 67.001 68 69 70 70 69.001 70.001 72 72.001 73 73 74 74.001 75.001 75.001 75.002 77 78.999 78.001 77.002 78.002 80.001 80.001 80.001 80.001 81 80.001 79.001 79.001 80 79.999 78.999 78.999 77.999 76.999 76.001 75.001 73.001 73 72 72 71.001 71.001 70.001 70.001 70.001 70.001 69.001 69 68 67.001 65.001 66.001 67.999 67 66 67 69 68.001 67.001 67.001 67.001 66 64 64 65 66.999 68.998 67.999 66 65.001 63.001 63.001 63.001 63.001 62.001 63 64.999 65 64.001 63.002 62.004 64.002 67 67 67 66 64.001 64.001 64.999 64.999 64.998 64.999 64.999 65.999 67.999 67.999 68.999 69 70.001 70.001 70 70 69.001 71 73.999 74.999 76.999 75.999 74.001 74.001 74.999 75 76 76 75.999 75.999 74.999 74.999 73.999 73.999 73.999 74 73.001 74 74.999 73.998 72.998 71.998 69.999 69.999 70.999 71.999 73.999 73.999 73.001 73.001 73.999 74.999 75.999 74.999 73.999 74.999 76.999 76.999 77.999 77.999 78 78.999 79.999 79 78.001 78.999 80.998 80.998 79.998 79.998 78.999 79.001 79.002 79.002 80.001 80.001 80.999 82 84 84 84 84.001 85.001 85.001 86.001 87 88 88 87.001 87.001 86.001 86.001 86.002 86.002 86.002 86.002 87.002 86.002 85.001 85.001 86.001 88 89.999 90.999 91.999 90.001 88.002 88.002 89.001 92 95.999 97 98.001 98.001 99.001 98.002 97.002 99.001 101 105.999 111.998 111.998 110.997 109.998 107.998 106 104 103.001 102.002 102.002
41 43 44.001 45.001 46 46.999 43 39 37 35 35 34.999 34.999 34 34 33 33 32.999 32.999 31.999 31.999 31 31 30.999 29.999 28.999 29.001 30.002 29.004 27.007 27.004 27.001 27.001 26.999 26.999 27.999 27.999 28.999 28.999 28.999 28.999 28.999 29.999 31 31.001 32.001 33 34 34 35 35 35 35 36 36 36.999 37.999 38.999 39.999 40.999 42.999 45.999 47.998 49.998 49.998 48.999 48.999 49.999 49.999 50.999 50.999 51.999 51.999 52.998 50.999 49 48.999 49.999 49.999 50.999 50.001 49.002 50.001 51 51 50 50 50 50 50.999 50 49.001 49.001 48 47 46 45 43.999 43.999 42.999 42 41 40.999 39.999 40 40.001 42 44.999 44.999 44 43.999 42.999 42.999 43 44.999 46.999 46.999 46.999 46.999 46.999 47.999 48.999 48.999 49.999 50 49.001 50.001 51 51 52 54 56.999 58.999 60.999 61 62 63 65 66 67.999 67.999 66.999 66.999 67.999 67.999 67.999 66.999 66 65 63.999 63.999 63.999 63.999 63 63 62 61.001 60.001 60 59.999 59.999 58.999 59 59.001 60 60.999 61 62.001 62 61 61.001 60.002 60.001 60 60 59.999 59 57.001 58.001 60 60.999 62.999 67.999 73 72.999 71.999 71 69.001 69.002 70.003 69.002 68 69 70 70 70.001 69 67.999 67.999 68.999 69.999 70.998 70.999 70.999 68.001 64.003 66.002 68 68.999 69.999 68.001 65.004 64.002 63.001 61.001 58.001 58.001 58 57.001 56.001 56.001 57.001 58 59 59 58.001 60 62.001 65 67.999 68.999 71 71 70.001 69 67.999 67.999 67 65.001 63.001 63.001 63 62.001 61.001 60.002 58.003 58.002 59.001 59.001 60.001 61.001 62.001 62.001 63.001 64.001 65.001 66.001 67.001 67.001 68.001 70 73 74 75.001 76.001 78.001 78.002 79.002 79.002 79.002 80.002 81.001 81.001 81.999 80.999 79.999 78 76.001 76.001 75.001 75.001 75 75 74.999 73.999 72 72 71 70.999 69.999 69.999 69.999 69 68.001 67.001 65.002 65.002 66.001 68 69.999 69.999 68.999 68.999 68.001 68.001 68.002 68.002 69.001 69.001 70.001 69.001 68.001 68.001 67.001 67.001 67.001 67.001 68.001 68.001 68 68.001 68.001 69.001 70.001 70.001 71.001 72.001 73.001 73.001 73.002 73.002 74.001 75.001 77 77.001 78.001 78.001 78.002 79.001 80 81 82 82 81 81 81 81 80.001 80 79.999 78.999 77.999 76.999 75.999 75.999 76.998 75.999 74 73 72 72 72 72 71 71 70.999 70.999 69.999 69.001 68.002 68.002 67.001 67.001 67.001 67.001 66.001 67.001 68.999 68.999 68.001 68 67.999 66 64.001 64.001 65 65 66 66 66 65.999 64.999 64.999 64.999 64 63 63 64 64.999 65.999 66.999 67.998 67.998 66.999 66.999 67 66.001 65.002 65.001 64.001 63.001 62.001 63.001 64.001 65.001 66.001 66.001 67 68.999 70.999 70.999 70.001 70.001 70 70.999 72.999 73.999 74.999 74.999 74.999 74.999 73.999 74.999 75.998 75.998 74.998 73.999 72.999 72.999 72 72 72.999 74.001 75.002 74.002 73.002 71.002 69.001 69.001 68 68.999 69.999 71.001 72.002 73.001 74.001 74 72.999 72.999 73.997 72.998 72 73 74.999 75.999 76.998 76.999 77.999 77.999 78.999 78.999 78.999 77.999 76.999 76.999 76.999 77 78.001 80 82.999 81.999 80.999 80.999 80.001 81.999 83.998 83.998 83.999 84.999 85.999 85.999 86.999 87 88.001 88.001 88.001 88.001 88.002 88.001 89 89.002 89.003 90.002 91.001 89.001 87.002 87.002 88.002 88.002 89.001 89.001 90 91.001 92.001 92.001 91.001 93 95 97 99 100 101 101.001 101.001 101.001 101.999 104.998 108.995 107.997 105.999 105.999 104.999 104.999 104.001 104.001 105 105.001
40.997 43.996 44.996 45.997 45.997 44.998 42 39.001 37.001 35.001 35 34 34 33.999 33.999 33 33 32 32 31 30.999 30.999 30.999 29.999 29 28.001 30.999 33.998 35.997 37.997 33.998 28.999 27.999 26 26.001 27.001 27.001 27.001 27.001 28.001 28.001 28.002 29.001 31 32.001 33.001 33.001 34 34 35 35 35.001 35.001 36 36 35.999 36.999 37.999 38.999 40 41.999 43.999 45 47 47 48 48 48.999 48.999 48.999 48.999 49.999 49.999 49.998 48.999 47.999 47.999 48.999 48.999 50 50.999 51.998 51.999 51 51 50 50 50.001 50.001 49.001 49.999 50.998 49.999 48 46.999 45.999 45 43.001 43.001 42.001 42.001 41.001 40.002 39.002 40.001 40.999 41.999 43 43.001 44.001 43.001 42.001 42.001 43 43.999 45.999 45.999 44.999 44.999 45.999 46 47.001 48 49 49.999 50.999 50.999 50.999 50.999 51.999 53.999 55.999 57.999 59.999 60.999 61.999 62.999 64.999 65.998 66.998 66.998 65.999 66 67 67 66 66 65.999 64.999 63 62.999 61.999 61.999 62.999 62.999 61.999 61.999 60.999 60 59 59 58.001 59.001 60.001 60.001 60.001 61 62.999 62 61.001 62.001 62.999 62 60.001 60.001 59.001 59.001 59 59 59.999 59.999 60.999 66.998 72.997 71.999 71.002 71.002 70.002 72 74.999 72 68 68.999 69.999 70 71 69.001 67.002 67.002 68.002 68.002 68.001 69.001 70.001 70.001 69.002 69.002 68.003 68.002 68 68.999 70.999 68.001 64.003 62.001 59 59 58 58 57.001 57.001 58.001 58.001 58.999 59 59.001 60.999 63.998 64.999 66 67.999 70.999 70.999 70.999 69 67 67 66.999 65.999 64 64 63 63.001 63.002 63.003 63.005 62.005 61.004 61.002 61 62.001 63.002 64.002 65.001 66.001 67.001 68 69 69 70 71 73 74 75.999 78 80 81.001 82.001 82.001 83 83 82.999 81.999 80.999 80 78.001 78.001 77.001 77.001 76.001 76.001 75.001 75.001 74.001 73.001 72.001 72.001 71 70.001 69.001 69.001 68.001 69 70 69.001 68.001 68.001 68.001 68 67.999 67.999 67 68 69.001 70 71 71 71 71 71.001 71.001 70.001 70.001 69.001 69.001 69.001 69.001 69 69 68.001 69.001 70.001 70.001 71.001 72 72.999 73.999 75 75.001 76.001 76.001 76.001 77.001 78.001 78.001 79.001 80.001 81.001 81.001 80.001 81.001 82 82 81 81 81 81 80.999 80 79.001 78 76.999 75.999 74 74 73.999 73.999 73 72.999 71.999 71.999 71.999 71.999 71 71 70 70 69.001 69.999 71.998 70.999 69.001 69.001 68.001 68 67.999 68 68.001 68.001 69 68 66 66 65 65 65.001 65.001 66 66.001 66.001 65.001 64.001 64 63.999 63.999 63.001 63.001 64 64 64.999 65 65.001 65.001 65.999 65.999 66.999 66.999 67.999 66.999 65.001 65.001 64.002 64.002 65.001 66.001 67.001 67 66.999 67.999 68.998 69.998 70.998 70.998 70 70 70.999 72 73.001 73.001 73.001 73.001 73.001 73 72.999 72.999 72 72.001 71.003 71.002 72.001 72.001 72.001 74.999 77.998 77.998 76.998 74 71.001 70.001 68.002 68.002 69.002 72 74.999 74.999 75.999 74.001 72.002 71.002 69.002 70.002 72 72.999 73.999 73.999 73.999 74.999 76.999 76.999 76.999 76.999 76.999 76.999 76.001 76.001 76.002 77.001 79 80 81 81 80 80 81 81.001 81.001 81.002 82.002 83.001 83.999 84.999 85.999 86.999 88.999 89.001 90.001 90.001 91.001 90.001 89.001 92 95.001 94.002 92.004 91.004 90.003 90.002 91.001 91.001 91 91 90.001 91.999 93.998 92.999 92.001 93.001 95 96.999 98.999 99.999 101 102 103 102 101 101 100.001 102.002 104.003 104.003 104.004 104.003 105.002 105.002 105.002 106.003
35.998 36.998 38.996 40.995 40.997 40.999 40.998 40.998 38.999 36.001 35.001 34 33.999 32.999 32.999 32.999 32.999 31.999 31.999 30.999 29.999 29 29 29.001 29.002 29.003 29.003 30.002 30.999 32.996 29.998 26 26 26 26.999 27.999 27.999 28.999 29.001 30.001 30.002 31.003 31.003 32.004 33.003 35.002 35.002 34.001 34.001 35.001 35.001 36.002 36.001 36 36 35 35.999 36.999 37.999 39.999 40.999 43 45 47 47 48 47.999 47.999 47.999 48 48 48.999 47.999 46.999 46.999 47 47 47.001 48 49.999 49.999 49 49.999 50.999 50.999 50 50 50.999 50.999 50 49 48 48 47 46.001 45.001 45.001 44.002 44.002 43.002 43.001 43 43 42 41 40 41 43 43.999 45.999 44.999 43.001 43.001 43.001 43.001 44.001 44.001 43.002 44.002 45.001 46.001 48 48.001 49.001 49.001 49.001 49.001 50.001 50.001 51 52.999 54.999 55.999 57.998 58.998 60.998 61.998 62.998 62.999 63.999 63.999 64.999 65.999 66.999 66.999 65.999 65.999 64.999 64 63 62 61 61 60.999 60.999 60.999 60.999 60 60 59 59 59.999 60.999 61.999 61.999 61.001 61.001 61 62 63 63 62 61.999 60.999 60.999 60.001 60.001 59.001 59.001 59.001 59.001 60 63.998 68.996 70.996 73.997 73.999 73.003 73.002 73.001 71.001 68.002 68.002 69.002 70.001 70.999 70.999 70.999 70.999 70.999 70.999 70.001 71 72 72.001 72.001 72.001 73.001 71.002 68.004 68.003 69.002 69.001 68.001 64 59 59 58 58.001 58.001 59.001 60 59 58 59 60 60.001 61.001 63.001 66 67 68.999 68.999 69.999 68.999 67 67 66 64.999 63.999 63.999 63.001 65 67 69 72 70.002 67.005 64.004 61.003 64.002 67.002 67.001 66.999 67 68 68 68.999 69 70 71 73 74 75 78 81 82 83 83 83 82.999 81.999 80.999 79.999 79.999 79.999 79.999 79.001 79 77.999 77.999 76.999 75.999 74.999 74.999 74 73 71 71 70.999 70 69.001 69.001 70.001 70.001 70 70 69 68.001 67.001 67.001 67.001 68 69.999 69.999 70.999 70.999 71 71 72 72.001 72.001 72.001 71.001 71.001 70.001 70.001 69.001 69.001 70.001 71.001 72.001 72.001 72.001 72.001 72.002 73.002 75.001 76.001 77.001 77.002 78.002 79.002 80.002 80.002 80.001 81.001 82.001 82.001 82 81.999 81.999 81.999 80.999 80.998 80.997 80.997 79.998 79.998 79.998 77.999 75 74.999 74 73.999 72.999 72.999 72.999 71.999 71 71 71 70.999 70.999 70.999 70 70 69.999 69.001 68.002 69.001 71 70.001 69.001 68.001 67.001 68.001 69 69 69 68.001 66.001 66.001 65.001 65.001 66.001 66.001 66.001 67 68 66.999 64.999 63.999 62.999 62.999 63.999 63.999 64 64 64.001 65.001 66.002 66.002 65.002 65.002 66.002 66.001 66.001 66.001 66.001 66.002 67.002 67.002 66.002 67.001 68.001 67.001 66.001 66.001 66.001 66 66.998 67.998 69.998 69.999 70 71.999 73.999 73.998 73.997 73.998 73.998 72.999 72.001 72.001 72.001 74 75.999 75 73.001 73.001 73.001 73 73.999 73.999 73.998 72.999 72 72 71.001 72.001 73 73.001 74.001 74.001 74.999 74.999 75.999 74.999 73.001 73.001 72.001 72.001 72.002 72.002 73.001 74.001 75 75 75.001 75.001 76.001 76.001 77.001 78.001 79.001 79.001 80 80 81 81 80.001 80.001 81.001 82.001 83.001 84.001 85.001 84.001 83 84 85.001 86.001 88 90 92 92.001 93.002 92.003 90.005 93.004 97.003 97.003 98.002 97.003 95.004 94.002 92.002 92.002 91.002 91.002 91.003 91.003 91.003 92.002 94 94 94.999 95.999 97.999 98.998 100.998 101.998 102.998 101.999 101.001 101.003 101.005 105.004 109.003 110.001 110.999 110 108.001 108.001 108.001 110.998
32.999 32.999 32.999 32.998 35.997 38.996 37.998 37.001 37.002 38.003 36.005 34.005 33.003 31.001 31.001 31.001 31.001 30.001 30.001 29.001 29.001 29.001 29.001 30.001 32 33.999 33.999 33.001 30.001 26.002 26.001 26 26 26.001 26.001 27 27 28 30 32 34.001 36.002 37.002 39.002 39.002 39.002 38.001 36.001 36.001 36.001 37 38.998 37.999 36 35.999 35 35.001 36.001 37 38 40 42.999 44.999 46.999 46.999 47.999 46.999 45.999 46.998 47.998 47.998 46.998 46.998 45.999 45.999 46.999 46.999 47.999 47.999 49 48.999 48.999 48.999 49.999 49.999 49.999 49.999 48.999 48.999 49.999 49 48 47.999 46.999 46.999 46.999 47 47.001 47.001 46.001 45.001 43.001 43 42 41.001 40.001 41.001 42.999 42.999 43.998 43.999 43.999 44.001 45.001 45.002 46.002 46.002 47.001 47 46 47 48 48.999 49.999 49.999 49.999 50.999 51.999 51.999 51 51.999 53.999 53.999 54.999 55.999 57.999 58.999 60 61 63 63 63.999 63.999 64.999 64.999 64.999 64.999 64 63.999 62.999 61.999 60.999 60.999 60 60 59 59 60 59.999 58.999 58.999 58.999 59.999 60.999 61 62 62 61.001 62.001 63.001 63.001 62.001 61.001 60.001 60.001 61.001 61.001 61.001 61.001 60.002 60.001 60.001 61 61.999 65 69.001 73 78 76.001 74.002 73.002 71.002 71.002 72.001 71.001 70.001 70.001 70 70.001 70.001 70.001 71.001 71.001 72 73 74.001 74 73.999 73.999 73.998 73.998 72.999 71 69 64 59.001 59.001 58.001 59.001 60 60 60 59.001 58.002 59.001 60 61 63 64.999 66.999 67 68 68 69 68 66.999 66.999 65.999 64.001 62.003 63.002 64 65.001 67.001 69.001 72.001 73.001 75.001 71.003 66.004 68.002 69.999 68 66 66.999 67.999 67.999 67.999 68.999 69.999 70.999 72.999 73.999 75 77.999 80.998 81.998 82.998 82.998 82.997 81.998 79.999 78.999 78 78.001 79.001 79.001 80.001 79 77 76 75 74 73 73 73.999 73 71.001 71.001 70.001 70.001 70.001 71 72 71.001 70.001 70.001 69.002 69.001 68.001 68.001 68.001 68.001 69 69 70 70 71 71.001 72.001 73.001 74.001 74.001 73.001 72.001 71.001 71.001 71.001 71.001 71.001 72.001 73.002 73.002 74.002 74.002 75.002 76.002 77.001 78.001 79.001 80.001 82 82.001 83 83 82.001 82.001 82.999 82.999 81.998 80.999 80 80 79 78 76 75.999 76.998 76.998 76.998 75.999 74 73.999 73.998 72.999 71 70.999 70.999 70.999 71 71 71 70 69 69 69.999 69.999 69.001 70.001 71.001 71.001 71.001 71 70 69.999 68.999 68.999 69 69 69 68.999 67.999 67 66 66.001 67.001 67.001 67 67 67.999 66 63.001 62.002 61.003 61.002 62.001 63.001 64.001 64.001 65.002 67 68.999 68.999 68.001 68.001 69.001 68.001 67.001 67.001 68.001 69 69.999 69.999 69.001 69.001 70 69 68 68 67.999 66.001 63.003 64.002 65.999 67.999 69.998 70.998 71.998 70.999 69.001 70.001 71.001 72.001 73.001 73.001 73.001 74.001 75 74.999 73.999 73.999 74 73.001 72.001 72.001 71.002 71.002 72.001 72 72.999 72.999 73 73.999 74.999 74.999 74.001 74.001 74.001 74.001 74 74 73 74 75.001 75.001 75 75.001 75.001 75.001 76.001 76.001 77.001 77.001 77.999 79 80.001 80.001 80.001 80.001 81 81 81 81.001 82.001 83.001 85 85 85.999 84.999 83.001 84.001 86.001 87.001 88.001 90 91.999 93.999 96 97 98.001 100 102.001 102.001 102.002 102.001 101.001 98.001 95.001 95.001 94.001 95.001 97.002 97.002 96.002 96.002 95.003 94.004 93.006 94.003 96 96 96.999 97.999 99.999 101 102.001 106 110 111.999 113.996 111.997 109.997 109.997 109.997 109.997 108.997 107.997
32 31.999 31 30 30.999 31.998 34.999 39 41 44 44 43 38.001 32.003 32.002 33.001 32.001 31 31 30.999 30.999 31 31 31 31.999 32.998 32.999 33.999 32.001 29.004 28.002 26.001 26.001 26.999 27 27.001 27.001 28.001 30 33 36 39.001 40.002 42.002 42.001 42.001 40.001 38.001 38.001 38 37.001 36.001 36.001 35.001 35.001 35.002 36.001 37.001 37.001 38.001 40 41.999 42.999 44.998 44.998 45.997 44.998 43.999 43.999 44.998 44.998 43.998 43.998 43.999 44 45.001 45.001 46.001 47 48.998 47.999 46.999 46.999 47.999 47.999 47.998 47.998 47.999 47.999 48.998 48.998 47.999 46.999 45 44.999 45.998 46.998 48.997 48.997 47.998 46 44 43.001 42.001 42 41.999 41.999 41.998 41.999 41 42 43 44.999 46.999 47.999 48.999 48.998 47.998 46.999 46 47 48 48 48.999 48.999 49 49.999 50.999 51 51.001 51.001 52 52 53 54.999 56.999 57.999 59.999 60.999 62.998 62.998 62.999 62.999 62.999 63 64 63.999 63.999 62.999 61.999 60.999 60 60 59.999 59.999 59 59 59.999 58.999 57.999 57.999 58 58.999 59.999 60.999 61.999 61.999 62.999 62.999 63.999 63.999 62.999 62.999 62.001 62.001 62.001 62.001 62.999 62.999 62.999 61.999 61 61.001 61.002 66.002 71.003 74 77.996 77.997 77.998 76.998 74.999 73.997 72.995 72.996 71.998 70.999 70.001 71.001 71.999 72.001 72.002 72.002 72.002 73.001 74.999 74 72.001 72.001 71.001 70.999 70.997 69.998 67.998 64 60 60 60 60 60 60 60 60 60.999 61 60.001 61.001 63 64 65.999 66.999 68 68 68.999 67.999 66 65.999 64.999 65.999 67 66.001 64.003 66.002 69.002 71.001 74 75 76.999 75.001 73.002 71.003 69.004 67.002 65.001 65.001 66.001 66.001 66 67 69 70 71 72.999 74.999 75.999 77.998 77.999 78.999 78.999 77.999 77.999 77.999 77.999 78 78.999 79.999 80 81 79.001 77.001 76.001 75.001 74.001 73.001 73.001 73.001 73.001 73.001 72.001 71.001 71.001 71.001 71.001 72 72 71.001 71.001 72 71.001 70.001 70.001 70.001 70.001 69.002 69.002 70.001 70.001 71 72.001 73.001 74.001 75.001 75.001 74.001 74.001 73.002 73.002 72.001 72.001 73.001 74.002 76.002 77.002 78.002 78.002 79.002 79.002 79.002 80.002 81.002 82.001 83.001 82.999 82.998 82.999 82.999 82.999 82 81 79.001 79.001 80 79.999 78.999 77.999 76 75 73 73 73.999 73.999 72.999 71.999 71 71 70.001 70.001 69.001 70 70.999 70.999 70.999 69.999 68.999 68.999 68 69 70 71 72.999 72.999 71.999 71 70 69.001 68.001 68.001 69 68.999 68.999 67.999 66.999 66.999 66.001 67.001 68.001 68.001 67.001 67.001 67.002 66.002 65.001 65.001 66 65.001 64.001 64.001 64.999 65.999 67.998 67.998 67 68 69 69.999 70.999 70 69.001 69.001 70 69.001 68.001 69.001 71 71 70.001 69.001 68.001 68.001 67.002 67.002 68.002 67.002 65.002 66.002 67.001 68.001 69.001 70.001 71 72 73 73.001 74.001 74.001 75 75 75 74.001 73.001 73.001 74.001 74.001 74.001 74.001 74 74 73 72.001 71.002 72.001 73.001 73.001 74 74 74.999 74.999 75 75 74.001 74.001 73 74 75.999 75.999 75.001 76 77 77 77.001 77.001 77.999 78 77.001 79.001 81.001 81.001 82.001 82.001 81.001 81.002 81.003 82.002 84.001 85.001 86 85.001 84.002 84.002 84.002 86.001 88.001 88.001 89.001 90.001 91.001 93.001 96 97.001 99.002 101.001 104 103.999 104.998 103.998 101.998 98.999 96 95.999 95 97.003 100.005 100.003 100.001 100.001 100.001 101 102.998 100 96.001 96.002 96.004 97.003 99.002 101.002 104.001 107 110.999 109.998 107.997 105.998 103.999 103.999 104.998 103.998 102.998 102.998
32 31 31 30 30 29.001 33.999 38.997 41.997 44.996 43.996 42.995 39.996 36.997 35.997 33.997 32.998 30.998 30.998 29.998 29.999 30.999 31 31.002 31.002 30.002 31.001 31.999 32.999 34.998 32 28.003 27.002 26.001 27.001 28.001 28.001 29.001 31.001 33.001 37 41 43 45 44.001 43.001 41.001 39.001 39.001 38 38 37.001 37.001 37 37 37.999 37.999 38 38 39 39.999 40.999 40.999 40.998 40.999 40.999 40.999 41.999 41.999 40.999 40.999 40.999 40.999 41.999 43.999 46 46 46.999 46.998 45.998 45.998 44.999 44.999 45.999 45.999 44.999 44.999 45.999 45.999 45.998 45.998 45.998 44.999 43.999 43.999 42.999 43 44 44 45 45 44.001 44 43 41.999 40.998 39.999 38.999 39.999 40.999 41.999 43 43.999 44.999 45.999 46.999 45.999 45 45.001 46.001 47 47.999 47.999 47.999 48 49.001 49.001 50.001 51 52 52 51.999 52 53 54 55.999 56.999 58.999 58.999 59.998 59.999 60.999 60.999 61.999 62.998 63.998 62.999 61.999 60.999 60 60 59.999 59.999 58.999 58.999 58.999 58.999 58.998 57.999 56 57 58 58 59 59.999 60.999 60.999 61.999 61.999 62 61.999 60.999 61.999 62.999 62.999 63.999 63 62 61.999 60.999 60.999 61 62.002 64.003 70 76.998 74.997 71.996 72.996 74.996 73.998 73 69.001 65.003 66.001 67.998 69.998 71.999 71.999 70.998 72.998 75.997 75.998 74.998 74.998 73.999 73.997 73.994 72.995 71.995 68.997 65.999 65.999 64.999 63 60.001 60.001 60.002 60.002 60.001 60 59.999 60 60.001 61.003 62.005 62.003 63 63.999 64.999 66 68 68.001 68 67 65.999 65 64 64.999 66.998 67.998 68.998 69.998 71.997 72.997 74.996 74.998 75.999 76 77 76.001 75.002 71.004 67.005 67.004 67.003 67.001 66 67 69 70 71 72 73 73.999 74.999 75.999 76.999 76.999 76.998 76.998 76.999 76.999 77.999 77.999 79 79.999 80.999 79.999 78 77 75.999 75 74 74 74 74 74.001 73.001 72.001 72.001 73 73 72 72 71.999 71.999 72 72 71.001 71.001 72 72 72.001 72.001 71.001 71.001 71.002 73.001 75 75.001 76.001 76.001 76.001 76.001 77 76.001 74.002 74.002 75.002 77.001 80 80.001 81.001 82.001 83.001 83.001 83.001 83.001 84 84 83.999 82.001 80.001 81.001 81.999 81.999 81.999 81 80.001 80 79.999 78.999 77 76.999 75.999 74.999 73 73 72.999 71.999 70.999 70.999 70.999 70.999 70.999 70.999 70 70 69.999 69.999 69.001 69.001 68.001 68.001 68 68.999 69.999 70.999 71.999 71.999 70.999 70.999 69.998 69.998 69.999 69.999 68.999 68 67 66.001 65.003 66.002 68.001 69 69.998 69.998 68.998 68.998 69.998 68.999 67.001 67 65.999 65.999 64.999 64.999 64 64 64 65.001 67 68.001 69.001 69.001 70.001 70.001 71 71 70.001 70.001 70.001 70.001 71.001 71.001 71.999 71 69.001 70.001 71.001 71.001 72 71.001 69.001 69.001 69.001 70.001 71.001 71.001 71.001 72.001 73.001 74.001 75.999 76 75.001 75.001 75.002 75.001 75.001 75.001 75.001 75.001 75.001 75 73.999 73.999 73.001 73.001 73.999 73.999 74 74 74 74 74 74.001 75.001 75.001 75.999 75 73.001 74.001 75.001 75.001 76.001 76.001 77 77 77.999 78 77.002 78.001 79.001 81 83 83.001 83.001 83.002 83.002 84.002 86 86 86 86.001 86.001 86.001 87.001 87.001 87.001 88 89.999 90 90.001 91.001 93 95 97 99 102 103 103.999 102.999 101 100.001 99.002 97.005 95.008 95.006 95.003 102.001 109 105.003 101.005 101.006 102.006 101.004 100.001 99.001 98 99.999 102.999 102.999 103 104 105.999 107.998 109.996 106.998 103 102.999 102 101.999 100.998 100.998 99.999 100.001
31.999 30.999 31 30.002 30.002 30.002 32.001 34.999 36.998 38.998 36.998 34.997 32.998 30.998 29.999 28.999 28.999 27.999 28 27.002 28.001 28.999 30.999 33.999 33.999 33.001 32.001 31 31 31 31 31.999 30.001 28.002 28.002 29.001 30 31 32.999 34.999 37.998 40.998 42.999 45.999 45 44.001 43.001 41.002 40.001 38.001 38.001 38 38.001 37.002 37.001 36.001 37.001 37.999 38 39 39 40 39 37.999 38.999 39.999 39.999 39.999 39.999 38.999 38.999 38.999 38.999 39.999 42.998 45.998 45.998 44.999 43.999 42.999 42.999 43.999 43.999 43.999 43.999 44 44 44 43.999 42.999 42.999 43 42.999 41.999 41.999 41.999 42.999 43.999 43.999 44.999 45 45.001 44 42.999 41 38 38.001 38.001 39.001 40 41 43 43.001 44.001 44.001 45.002 45.001 45 46 47.001 47.001 47.001 47.001 46.001 48 50 50.001 51 51 52 52 51 52 53 53.999 54.999 55.998 56.998 56.999 56.999 57.999 58.999 58.999 59.999 59.999 60.999 60.999 59.999 59.999 59.998 59.998 58.999 58.999 57.999 57.999 56.999 56.999 55.999 55.999 56 56.999 57.999 57.999 58.999 58.999 59 59 59.999 60.999 61.999 61 60.001 60.001 61 61.999 62.999 62.999 62 61.001 60.001 60 60.999 64.999 69 70.999 73.999 69 64.001 66.001 69.001 71 72.998 71 69.001 67.001 64.002 67 70.999 69.999 68 69.998 71.997 71.998 72 72.001 73.001 69.001 64.001 64.002 63.004 63.003 64.001 64.001 63.001 62.002 61.004 62.001 62.999 62.999 61.999 60 58.002 60.002 62.003 66.002 71.001 67.002 63.003 63.001 63 65.999 68.998 68.998 67.999 66.999 65 64.999 64.001 64.001 63.002 64.002 66.001 66.001 66.999 67.999 68.999 71.998 74.997 75.997 76.998 76.998 77.998 76.999 76.001 74.001 72.001 69.002 66.002 67.001 68.999 69.999 70.999 71.999 72.999 72.999 73.999 73.999 74.998 74.998 73.999 74 75 75.001 76.001 77.001 79 79 79 79 78 77 75 75 74.001 74.001 74 74 75 74.001 73.001 73 72.999 72.999 72 72 71.001 71.001 72.001 72.001 72.001 72.001 72.001 72.001 73.001 73.001 72.002 73.002 74.002 75.002 76.002 77.001 78.001 78.001 78.001 78.001 77.001 77.001 78.001 78.001 78.002 79.002 81.001 81.002 82.002 83.001 84.001 84.001 84 83.999 83.998 83.998 82.998 82.998 81.999 81.999 81 81 81.001 81 80.999 80 79 78 76.001 76.001 75.001 74 72.999 72.999 72 71 70 70 69.999 69.999 69 69 70 70 69.001 69.001 70 69.999 68.999 68.999 67.999 67.999 68.999 68.999 69.999 69.999 69.998 68.999 67 66.999 67.999 68.001 68.002 68.002 67.002 68.001 69.999 69.998 69.998 68.998 67 66.999 66 66.001 67.001 67.001 67.999 66.999 65 65 64.001 64.001 64.001 64.001 64.001 66 67.999 68.999 70.998 70.999 72 72 71 71 71.001 71.001 71.001 71.001 71.999 71.999 71.001 71.001 71.001 71.001 72 72 72 72.001 71.002 71.002 71.002 71.002 72.002 72.002 72.001 73.001 75 75 74.999 75.999 77 77.001 78.001 77.001 76.001 76.001 76.999 76.999 75.999 75 73.001 73.001 74.001 74.001 73.002 73.001 74 74 74 74 74.001 75 76.999 76 75.001 75.001 75.001 75.001 76.001 76.001 77 77 76.999 76.999 76.999 77.999 79.999 80 81.001 82.001 84 84 85 85.999 86.999 86.999 85.999 85.999 86.001 87 88 87.999 87.999 87.999 88 88.001 89.001 90 91 91.999 92.999 94.999 97 100 103.001 103.001 103.001 102.001 101.002 102.003 103.004 106.002 108.999 105.001 101.003 105 108.999 109.001 110.002 111.003 113.004 107.003 101.002 100.001 98.002 99.001 100.999 101.999 103 104.001 105.001 105.001 104.001 103.001 102.001 102 101.999 100.001 98.001 98.001 99.001 101.002
31.001 30.001 31 32.999 33.001 34.001 34.002 34.002 34.002 35.001 33 29.998 28.998 27.999 27.999 27 27.001 27.001 28.002 30.002 29.002 27.004 29.003 32.001 33.001 33.999 33 31.001 31.001 31 31 31.001 31.001 31.001 31 30 30 31 31.999 32.999 34.999 37.998 40.998 43.998 44.998 45.999 45 44.001 42.002 40.003 39.005 38.008 39.007 40.006 39.005 38.002 38.001 37.001 38.001 39.001 39.001 40 39 37 37.999 38.999 38.999 38 38 37.999 37.999 38 38 38.001 39.999 41.999 42.999 43.999 43 42.001 42.001 42.999 42.999 42.001 43 44 43.999 43.999 42.999 41.999 41.999 42.999 41.999 41.001 41.001 41.001 42 42.999 43.001 44.001 45.001 46.001 44 41.999 40 38.001 39 39.999 39.999 39.999 40.999 42.999 43.999 45 46.001 48 47.001 45.002 46.002 48.001 48.001 48.001 48.001 47.002 49 51 51 51 51 51.999 51.999 51.001 52 53 53 53 53 54 54.999 55.999 56 57 57.999 58.999 58.999 59.998 58.999 57.999 57.999 56.999 56.999 56.999 56.999 56.998 55.999 55 54.999 53.999 54.999 55.999 56 57 57 57.999 57.999 58.999 58.999 59 59.999 60.999 61 61.001 61 60.999 60.999 61.999 61.999 62 62 61 60.002 59.004 64.001 68.999 70 72 69.002 65.003 68.001 70.999 70.999 69.999 69.999 69.999 69.001 68.002 68.001 69 68.001 67.001 67.001 67.001 69 71.999 72.999 74 70.002 66.004 68.003 70.002 68.003 66.004 65.002 64.001 65 66.999 63.999 60.999 60.999 60.001 60.003 61.005 64.004 68.003 70.002 73.002 70.004 67.005 65.004 63.002 64.001 65.998 65.998 65.998 64.999 63.999 63.999 64.999 64.999 66 66.999 67.999 67 66.001 66.001 67.001 68 69.999 70.998 72.997 72.997 73.996 75.996 77.996 75.998 73.999 71.999 69 68 67.001 68.001 70 70.001 71 71 71.999 71.999 71.999 71.999 73 74 75 76 77 78 79 79 78.999 78.999 78 77 75.001 75.001 75.001 75 74 74 74.999 74.999 74 73.001 72.001 72.001 72.001 72.001 72.002 72.002 73.001 73.001 73.001 73.001 73.002 73.002 74.001 74.002 75.002 76.001 77.001 78.001 79.002 79.002 80.001 80.001 79.002 79.002 79.001 79.002 80.002 80.002 81.001 82.001 83.001 84.001 85.001 85.001 85.999 84.999 83.999 82.999 81 80.999 79.999 79.999 80.999 81 81.001 81.001 82.001 81.001 80.001 80 79 78.001 77.001 77.001 76 74.001 72.001 72 71.999 70.999 69.999 69.999 69.001 69.001 69.001 69.001 70 70 70 69.999 69.999 68.999 68 67.999 66.999 66.999 67.999 67.999 67.999 67.999 66.998 66.998 65.999 66 66.001 69 71.999 71.999 71 69.999 67.999 67 66.001 66.002 66.002 66.002 66.002 67.001 68 68 67 66 64.001 65.001 66.001 66.001 65.001 65 64.999 65.999 66.999 66.999 67 68.999 71.999 71.999 70.999 71 72.001 72.001 72.001 72.001 71.001 71.001 72 72 72 72 72 72.001 72.001 73.001 74.001 74 74.999 74.999 75 75 74.001 74.001 75 74.999 73.999 74.999 76.999 77.999 78.999 78.999 77.999 77 76 76 75.001 75.001 75.001 75.001 75.999 75.999 76 75.001 74.001 74.001 74.001 74.001 75.001 75.001 76.001 76.001 76.999 76.999 76 76 77 77 77 77 76.001 76.001 75.001 76.001 77.999 79.999 81.999 82.998 83.998 83.999 84.999 84.999 85.998 84.999 84 85 87 87 87.999 87 86 87.001 88.001 89.001 90 90 90.999 91 92 94 97 100.999 104.998 104.999 104.001 104.001 104.001 106.999 109.998 108.998 107.998 106.998 104.998 105.999 108 111 114 116.999 119.997 111.999 103.001 102.001 101.001 100.001 99.001 101.001 103.002 105.003 107.006 107.006 106.006 105.006 103.007 102.005 101.002 101.001 100 100 101 105
32.998 30.998 30.998 31.997 33.996 35.995 36.995 37.995 37.995 36.997 31.998 26 25.999 26.999 26.999 27 27.999 28.999 30.998 32.997 32.999 34.001 34.001 34 34 33.001 33.001 33.001 32.001 31.001 31.001 31.999 31.999 31.999 30.999 30.001 30.001 31 31 31 32.999 34.998 36.999 39.999 41.999 45 45.001 46.001 46.002 45.005 48.004 51.004 51.003 51.002 47.001 42.001 40.001 38.001 39.001 40.001 40 39.999 39 37.001 37.001 37.999 37.999 37.999 37.999 37.001 37.001 38.001 38.001 39.001 39.001 40 40.999 41.999 42.999 43.999 42.999 41.999 42.001 43.002 43.002 44.001 43 41.999 41.999 40.999 40.999 40.999 40.999 41.998 41.999 42 42 42 43.999 45.998 46.999 47.999 43.999 39.998 39.998 38.999 38.999 38 38 38.001 39 40.999 43 45 47 49 49.001 49.001 49.001 50.001 50.001 49.001 49.001 50.001 50.001 51 51 51 50.999 49.999 50.999 52 52 53 53 53 53 54 54 55 55.999 56.998 56.999 56.999 56.999 56.999 56.999 56.998 55.999 54.999 54.999 54.999 54.998 53.998 53.999 54.999 53.999 52 53 55 56 57 57 56.999 57 58.001 58.001 59 59 59.999 61 62.001 61.001 60 60 59.999 60.999 61.999 61.999 61.001 63.003 65.005 66.004 68.002 70 72.999 71.999 70.001 70.001 70 70 69.001 69.001 69.001 70.001 71.002 70.001 68.999 68.999 68.998 68.999 68.999 69.999 70.998 71.999 73.999 72.999 72.001 73 73.999 72.999 71.999 69.001 65.002 65.001 65.001 62.001 59.002 60.001 61.001 65.001 69.002 71.001 73.001 74.001 76 76 74.999 71.002 67.004 65.002 63.001 63.001 63 63 63.001 63.001 63.001 64.001 66 66 66.999 67 68 68.001 68.002 68.001 68.001 68.001 68.001 68.001 68.001 69.999 71.998 71.998 71.999 69.999 67.999 67.999 68.999 69.998 70.998 70.999 70.999 70.999 70 70 70.001 71.001 73 74.001 75.001 76.001 77.001 78.001 79.001 79.001 78.001 78.001 78.001 77.001 76.001 76.001 76 75.001 74.001 74.001 73.002 73.002 74.001 74.001 74.001 74.001 74 74.001 75.001 75.001 75.001 75.001 75.002 75.002 76.001 76.001 76.002 77.001 78.001 78.001 79.001 80.001 82 82 82 82 82.001 82.001 81.001 82.001 84 84 83.001 83.001 84 84.999 85.999 85.999 84.999 83.999 82 80.999 79.999 79.999 78.999 78.999 78.999 80.998 82.997 82.998 83.998 82.998 80.998 79.999 78.999 78.999 78.999 77.999 76 74.999 73 71.999 70 69.001 68.001 69.001 69.999 69.999 69.999 69.999 69.999 69.999 69.999 68.999 67.999 67.999 67.999 67 66.001 66.001 66 66 67 66.001 64.001 64.001 64.001 66 68 69 70.999 70.999 70.998 69 66.001 67.001 68.001 69 69.999 69.999 70 69.001 68.001 68.001 67.001 66.001 65.001 66.001 67.001 67.001 66.001 65.001 64 64.001 65.001 66.001 67.001 68 69.999 69.999 69.999 70.999 72.999 73 73.001 73.001 73 73 72.001 72.001 72.001 72.001 72.001 73 74 74 75 74.001 73.001 74.001 75.001 75.001 76 76 75 74.001 73.001 74.001 76 77 78 77.999 76.999 76.999 76 76 76.001 76.001 76 75.999 74.999 75 76 76 76.001 76.001 75.001 76.001 76.999 76.999 76.999 76.999 76 76 76 76 77 77 77 77 77.001 77 76.999 76.999 77.001 78 79.999 79.999 80.999 81.999 82.999 82.999 83 83 83.999 84.999 86.999 86.999 86.999 86.999 86.001 87.999 89.998 89.998 89.999 89.999 89.999 91.001 92.002 95 97.999 99.999 101.999 102.999 104.999 104.999 105.999 105.999 106.999 106 104.002 103.002 102.003 105.003 109.003 112.002 115 115 114.999 110 104 103.002 102.004 102.003 101.005 103.003 106.001 111 116.998 116.999 116.999 115.999 114.999 109.999 103.999 101.999 100 99.999 100.999 104.996
29.998 27.999 27.999 26.999 26.999 27.999 28.998 29.996 29.997 30.996 27.998 25.001 25.001 26.001 26.001 27 26.999 26.999 27.001 28.002 32 35.998 34.999 33.999 33.999 34.998 34.998 34.998 33.999 32 31.999 30.999 30.999 29.999 29.999 30.999 31 31.001 31.001 31.001 31.001 32.001 35 38 40.999 44.999 45.999 47.999 50 53 55.999 58.998 56.998 54.998 49.002 43.004 41.002 39 39.999 40.998 39.999 38.999 38.999 37.999 37.999 36.999 36.999 37 37 37.999 37.999 38.999 39.999 40.998 40.998 39.999 40 41 41 41.999 41.999 41 43 45.999 45.999 44.998 43 41 40 39 38.999 38.999 38.999 38.999 39.998 41.998 41.998 41.999 41.999 42.999 44.999 46.999 42.001 37.001 37.001 37.002 37.002 38.003 38.003 39.002 39.002 40.001 43 46 47.999 49.999 49.999 51 51.001 52.001 52.001 51.001 51.001 52.001 52 50.999 50.999 51 50.001 49.001 50 51.999 51.999 52.999 52.999 52.999 53 54 53.999 54.998 54.998 53.999 54.999 55.999 55.999 55.999 55 54 54 54 53.999 52.999 52 51 51.999 53.999 52.999 52 53 54.999 55.999 57 57 56.001 57.001 59 59.001 59.001 59.001 59.001 60.999 62.999 61.999 60.001 60 58.999 58.999 59.999 61.001 62.002 68.001 74.001 73.001 71.001 70.999 70.998 70.998 70.999 71 70.001 70.001 70.001 70.001 71 72 73.999 71.001 67.003 67.002 66.001 67.001 68.001 68.001 68.001 70 72 72.001 72.999 72.998 71.997 71.997 70.997 69.998 68 66.999 65.998 63.999 62 62.001 63.001 67 71.999 72.999 74.998 75.998 76.999 75.999 74.001 74.001 73 69.003 65.006 64.006 63.006 63.004 64.001 64.001 64.999 65 66 66 66 67 68 69 70.999 70 69.001 69.001 69.001 69.001 69.001 69.001 69.001 69.001 70 68.001 66.001 66.001 66.999 66.999 67.999 68.999 69.999 69.999 69.999 70 71 72 73 74.999 76.999 77.999 78.999 79.001 80.002 80.001 80.001 80.001 79.001 79.001 78.001 77.001 76.001 76.001 76 76 75.999 75.999 75 75 75.999 75 74 75 76.001 76.001 77.001 77.001 78.002 78.002 77.002 78.002 79.001 79.001 80.001 80.001 80 80.999 81.999 81.999 82 82.001 83.001 83.001 83 82.999 83.998 83.999 83.999 83.999 83.999 83.999 84.999 84.999 83.999 82.999 81 80 79 79 78.001 78 77.999 77.999 77.999 78.999 79.999 79 78.001 78.001 77.001 77.001 77.999 77 76 74.001 72.001 71.001 70.001 70.001 70.001 70.001 69.001 69 68.999 68.999 68.999 68.999 68.999 67.999 67 67 67 67.001 68.001 67.001 66.001 66.001 67.001 67.001 66.001 66.001 65.001 66.001 68 68.999 69.999 68.999 68.001 68.001 68 68 68.999 68.999 68.999 69 70 69.999 69.999 69.999 68.999 68 66.001 67.001 67.999 67.999 67.999 66 64 65 66.001 67.001 68.001 68.001 69.001 69.001 69.001 70.001 71.999 73 74.001 74 72.999 73 74 74 73.999 74 73.001 73.001 74 74 75 75.001 75.001 75.001 76.001 76.001 76 76 75.001 75.001 74.001 75 75.999 76.999 78 77.001 76.001 76 75.999 75.999 76.999 76.999 76.001 75.001 74.001 75 76 76 77 77 77.001 77.001 76.002 76.002 76.001 76.001 76.002 76.002 76.002 76.001 77 77 76.999 76.999 77.999 77 75.002 76.001 78 78 78 78.999 79.999 80.999 81.999 81.999 82.999 83 83.001 84.001 85.001 85 84.999 85.999 86.999 86.999 86 86.999 87.999 87.999 88.999 91.999 94.999 95 96 97.999 100.998 101.998 103.998 103.999 104.999 105 106 106.002 107.003 107.006 107.01 110.007 114.003 115.001 115.999 114.999 113 109.002 104.006 106.004 108.003 108.002 109.001 109.001 108.002 111 114.999 115 115.001 114.001 113.001 107.002 101.003 100.001 98.999 98.999 98.998 98.998
26.999 26 26 25.001 25.001 26.001 25.001 24.002 24.001 25 25.001 26.002 26.002 27.002 27.001 26.999 26 25.001 28.001 31.002 32.001 32.999 32.999 32.001 32.001 32 32 32 32 32.001 31.001 29.003 29.003 28.003 29.002 30 31 32.001 32.001 33.002 33.002 33.001 35.001 38 40 43 44 45.999 49.997 53.996 53.996 54.995 53.995 51.997 50.998 49 44 39 38.999 37.999 37.999 37.999 37.999 36.999 35.999 34.999 35.999 36.998 36.999 37 37 37.999 37.999 37.999 38 39.001 40 40.999 40.999 40.999 40.999 40.999 42.998 44.997 43.999 42.001 42 40.999 39.999 38.999 38 37.001 37.001 37 37 37.999 38.999 40.999 41 41.001 43 46 43 39.001 39.002 40.003 41.002 42.999 42.999 42 42 42.001 44 46 46.999 47.999 48.999 50.999 51.999 52.999 52.999 53 53 53 52.001 50.001 50.002 51.002 51.002 50.001 50.001 51 51 51.999 51.999 51.999 52.999 53.999 52.999 51.999 51.999 51.999 52.998 54.998 54.998 54.998 54.998 53.999 53.999 53.999 52.999 51.999 51.999 51 51 52 52 52.001 53.001 54.001 55 56.999 56.999 58 58.999 59.999 59.999 60.998 60.998 59.999 59.999 60.999 60.998 61.997 59.998 57.999 57.999 58 61.998 65.997 70.996 75.996 73.998 71.998 69.998 66.998 67.999 70 71.001 72.002 72.001 71.001 71.001 71 72 73 72.001 71.001 70.001 68.001 68.001 69 69.001 69.001 71 72.999 72.999 72 69 66 66 66.001 67.001 68.002 65.001 62.001 62.001 62 63 64 66.999 70.998 70.999 71 72.999 74.999 74.999 75.999 74.999 73 73.999 74.999 74.001 73.002 70.003 66.004 65.003 64.002 65.001 66.001 66.001 66.001 67.001 68.001 69 70 70.001 70.002 70.002 71.001 71.001 71.001 71 70 70 70 69 68 67.001 66.001 66.001 67.001 67.001 68.001 68.001 69.002 70.001 71.001 72 72.999 73.999 75.999 76 77.001 79.999 82.998 81.999 81.001 81.001 81.001 81.001 80.001 79.002 77.002 77.002 76.002 76.001 75 75.001 75.001 75.001 74.999 74.999 74 75.001 77 77.001 78.001 79.001 81 81.001 81.002 81.002 81.002 81.002 81.001 81.001 80.001 80.001 81.001 81.001 82 82.999 83.998 83.998 82.998 81.999 81.001 82 83 83 82.999 82.999 83.999 82.999 81.999 81.001 80.002 80.001 79 78.999 78.998 77.999 76.999 76.999 76.999 77.999 79 79 79.999 78.999 77.999 77.999 76.999 76.999 75.999 74.999 73 72.001 71.001 71 70.999 70.999 69.999 68.999 67.999 67.999 66.999 66.999 67 67 67 67 67 67.999 68.999 67.999 67.001 68.002 69.003 68.002 67.002 67.001 66.001 67 68 68 68.001 68.001 69.002 69.001 68.001 68.001 68.001 68.001 68.002 69.001 70 69.001 68.001 68.001 68.001 68 67.999 67.999 67.001 67 65.999 65 64.001 65.001 67 67.999 68.999 68.999 69.999 70 71 71 71 72.999 74.999 74 72.001 72.999 73.998 73.999 73 73.999 74.999 74.999 74.001 74.001 75.001 76 76.999 76.999 76.999 76.999 76.001 76.001 76.001 76.001 75.001 75.001 75.001 76 77.999 77.999 77.001 76.001 75.001 75.001 75.001 76.001 76.999 76 75.001 75.001 76.001 76.001 77.001 77.001 78.001 78.001 79 79 78.001 78.001 79 79 78.999 78 77 77.001 76.003 76.002 77.001 77.002 78.002 78.002 78.002 78.002 78.002 78.002 78.001 79.001 80.999 81 82 83 84.001 85 85.999 84.999 83.999 84 85 85 86 86 86 87 88 91 94 94.999 95.999 96.999 97.999 98.999 99.999 101.998 103.998 104.999 105.999 109 112 118.001 125.001 122.003 119.005 117.004 115.002 114.001 112.001 112.003 113.005 113.002 113 112 110.001 110.002 111.003 112.002 113.999 114.999 115.999 115.999 115 110.001 105.001 102 97.999 96.999 95.001 95
26.001 26.001 26.001 26 26 26.999 26.999 27 26.001 25.001 27 30 30.001 30.002 28.001 26 26.001 26.002 30.001 34.001 33.002 32.002 32.002 33.002 33.001 32.001 32 31.999 32 33.001 33.001 33.999 33.999 32.999 32 30.001 31.001 33.001 34.001 35.999 36 35.001 37 39 40.999 43.998 43.998 44.998 45.997 47.996 46.997 45.997 45.997 45.996 46.996 48.995 43.998 39 38 37 37 36 35.999 34.999 34.999 34 34 33.999 34.999 36.999 36.999 36.999 36.999 37 38 39.999 39.999 39.999 39.999 39.999 39.999 38.999 39 40.001 42 44.001 42.002 40.004 39.003 38.002 38.002 39.003 38.002 37 36.999 35.999 37.999 39.999 40.998 41.998 43.999 45.999 43 40 42.998 45.995 43.998 42.001 42.001 42.001 42.001 43.001 44.001 46 46.001 47.002 48.002 49.001 50.001 52 52 53 53 53.001 53.001 52.001 53.001 55 54 52.001 52 50.999 50.999 49.999 50 50.001 51.001 52.001 51 49.999 49.999 49.998 49.999 51 50.999 50.999 50.999 51.998 51.999 52.999 51.999 51.001 51.001 51.001 51.001 52.001 52.001 53.001 54 54.999 54.999 55 55.999 57.999 57.999 58.999 58.999 57.999 57.999 57.999 58 59 58.001 57.001 57 56 56.999 57.999 58.998 60.998 64.998 69.998 69.998 68.998 66.001 63.004 67.002 71 72.999 74.998 73.999 72.999 71.999 71.001 72 72.999 72.999 73 71 69 69 69.001 70.001 71.001 71.001 71.001 71.001 72.001 69.002 66.003 66.002 67.001 69 70.999 67.001 63.002 63.001 62.001 63.001 64.001 66 68 69.001 71.002 72.001 74 74 74.999 73.999 72.001 73.001 74.001 75.001 76.002 74.003 72.004 70.004 67.004 67.001 66.998 66.998 67.998 67.999 68.999 69.001 70.001 71.001 73.001 73.001 73 73 72 71.001 70.001 70.001 70 69.001 68.001 68.001 67.001 67.002 68.002 68.002 69.001 70.001 72 72 72.001 72.001 72.001 73.001 75.001 76.001 78 79.001 80.001 81.001 82.001 82.001 82.001 82.001 82.001 82 81 80 79 77.001 75.001 76.001 77 76 74 74 74 76 78 79.001 80.002 81.002 82.001 83.001 84.001 84.001 84.001 84 83 82.001 81.001 81.001 82.001 82 81.999 80.999 79.999 79.998 78.998 79.998 81.998 81.998 82.998 82.998 81.998 81.999 81.999 81.999 80.999 81.998 82.998 80.998 78.998 77.999 76 76 76 76 76 76.999 78.999 78.998 78.998 77.998 76.999 76.998 75.998 75.998 74.999 73.999 72.999 72.999 71.999 70.999 69.998 68.998 67.999 67.999 67 67 66 65.999 66.998 66.999 66.999 66.999 66.999 67 67.001 67.001 67.999 70.998 73.996 71.998 70 69 67.001 67.001 68.001 68.001 69.001 70 71.998 70.999 69.001 69.001 69.999 69.999 70.999 70.999 70 69.999 68.999 68.999 68.999 67.999 66.998 66.998 67.998 66.999 65 65 65.001 66.001 67.001 67.001 68.001 68.001 69.001 70.001 71.002 71.001 71.001 72.001 74 74 73 72.001 71.001 72.001 73 73 74 74.001 75.001 75.001 76 75.999 74.999 74.999 75.999 75.999 76.999 76.999 77.001 77 76 76 76 76 76.999 77 78 78 77 77 77.001 77.001 76.001 76.001 76.001 76.001 77 77 78 78 79 79 79 79.001 80.001 80.001 79.002 79.002 78.002 78.002 77.002 79.001 81 80.001 79.002 80.002 81.001 81.001 81 81 80.999 80.999 80.001 80.001 80.001 81.001 81.999 82.999 84.999 84.999 85 84.001 83.002 84.002 85.001 85 85.999 85.999 86.001 87 88 90.999 93.998 93.998 94.998 95.999 97 97 98 99 100.999 102.999 105 108.999 112.999 119.998 126.998 126.999 127 123 118.001 116 114 116.998 120.995 116.999 113.003 112.002 111.001 113.999 116.997 114.997 111.997 112.996 113.997 113.997 114.996 110.997 106.997 101.999 96.001 96 95.999 95
26.999 27.998 26.999 26 26 25.999 25.999 26.999 26.999 25.999 27.998 30.997 31.997 32.997 29.999 26.001 27.003 29.004 32.003 36.001 36.001 36.001 36.001 36 34.999 32.999 32 30.002 32.002 34.003 34.001 32.999 32.999 31.999 31.999 31.001 33 34.999 34.999 35 36 37 37.999 38.998 38.999 39.999 39.999 40.998 40.998 41.997 41.997 40.998 39.998 38.998 39.998 40.998 39.998 37.999 37.999 36.999 36.999 36 35.001 34.001 34.001 34.001 34.001 33.001 34.001 36 36.001 36.001 36.001 37.001 38 38.999 38.999 38.999 38.999 38.999 38.999 38 39 40.999 42.999 45.999 45.999 45.998 44 41.002 42.003 44.004 41.004 37.003 36.003 35.002 36.002 38.002 38.002 39.002 42 44.999 42 39.001 39 38 39.999 42.999 42.999 43.999 43.999 44 45 46 48 51 51 51.001 51.001 52 52 52.999 53 54 53.999 52.999 53.999 54.999 53.998 52.998 51.999 50.001 50.001 49.001 50.001 52 52 52.999 51 49 48 47 48.999 50.998 49.999 49 49 49.001 50.001 51.001 51.001 52.002 52.001 52 52 53 53 54 54 54 54 55 55 55.999 56.999 57.999 57.999 56.999 56.999 57.001 58 59 59 58 57 56 56 56.001 56 56.999 61.999 67 66.002 65.003 67.002 69 70 71.999 71.999 71.999 71.999 71 71.001 72.001 72.001 71.999 71.999 72.998 70.999 69 69 70 70.999 71.999 71.999 71.999 72.999 73.998 72.999 71.001 70.001 69 69 68.999 68.001 66.003 65.002 64.002 65.001 66.001 67.002 68.003 71.001 73.999 74 74.001 74.001 73.001 73.001 74.001 74.001 75.001 77 79.001 79.001 79.001 77.002 74.003 69.003 64.002 64.002 65.001 66.001 68 70 72 73.001 75 74.001 73.001 73.001 72.001 72.001 72 71.001 70.001 70.001 69.001 69.001 69.001 70.001 71.001 71.001 71.001 71.001 72 72.001 73.001 73.001 74.001 75.001 77 78.001 79.001 80.001 80.999 81.999 83 83 83.001 83.001 83.001 82.001 81.001 80.001 79 77.999 76.999 76.999 76.999 76 74.001 74.003 74.006 76.007 79.007 81.007 84.006 84.005 84.004 84.003 85.001 85 84.999 83.999 82.999 82.999 82.999 82.999 82.998 81.998 79.998 78.998 77.998 76.999 76 77 79 79 79.999 79.999 78.999 79.999 80.998 79.999 79 78.999 79.998 77.999 76 75.999 76 76 75.999 75.999 75.999 75.999 76.999 75.999 74.999 74.999 74.999 73.999 72.999 72.999 72.999 72.999 71.999 71.999 70.999 69 66.001 66.001 66 66 66.999 66.999 66.001 65.001 64.002 65.001 66.001 66.001 66.002 67.001 68 68 67 67.001 68.001 68.001 69 69 68.001 68.001 69.001 70 70.999 70 69.001 70.001 70.999 70 69.001 69.001 69.001 69.001 70 69 68 68 67.001 66.001 64.002 64.001 65 65.001 65.001 65.001 66.001 67.001 68.001 69 70 70.001 70.001 72 74 73 72 72.999 73.999 73.999 73 73 73 73 72.999 73 74 75.001 76.001 76.001 75.999 74.999 73.999 73.999 74.999 74.999 75 75.999 77.999 76.999 76 76 76 76 76.001 77.001 78.001 78.001 77.001 77.001 78 78 78 78.001 77.002 77.001 77.001 77.001 78 78.001 79.001 79.001 79.002 80.001 81 80.999 81.998 81.998 81.999 81.999 81.001 81.001 81.001 82.001 83.001 83.001 82.001 82.001 81.002 81.002 80.002 80.002 81.001 81.001 82.001 82.001 81.002 82.001 83.001 83.999 84.998 85.998 86.998 86.998 85.999 84.999 84 85 87 87 88 89 90 90 91 93.999 96.998 96.998 97.998 98.998 99.998 101.999 105 108 111.001 117.001 124 125 126.999 122.999 118.998 116 113.001 113.001 113.001 114.999 116.999 114.999 112 111.999 112 109.001 106.002 107.002 109.001 108.998 107.996 104.997 100.998 98.998 96.999 95.999 95 95
24.999 23.999 24.999 25.999 25.999 25 25 25.999 25.999 25 25 25.999 26.999 27.999 28.001 28.004 32.002 36 36.999 37.998 37.998 37.999 36.999 36.001 34 31 32 33.001 36 39 36 32.001 32.001 31.002 31.002 32.001 33 34 34 35 35.999 36.999 36.999 36 36.999 38.997 38.997 37.998 37.998 36.999 36.999 36.999 36.999 36 36 36.999 36.999 35.999 35.999 35.999 36 36.001 36.001 36 35.999 34.999 34.999 34 35 36 36.999 37.999 37.999 37.998 37.998 37.999 37.999 37 37 36.999 37 38 39 40 41.999 43.999 43.999 42.999 43.998 44.997 47.997 50.998 46.999 42.001 41.002 39.004 40.003 41.003 42.002 43 42.998 42.997 41.998 40 39.001 38.001 39.001 41 41.999 42.999 43 44 45 46.001 48 50.999 51 52 52.001 52.001 52.001 52 52.999 53.999 52.999 51.999 51.999 52.998 51 49.001 50.001 51 51 51 51 51.999 51.999 51.999 50 48.001 48 47 47.001 47.001 48.002 49.002 49.002 50.001 51 51.999 52.999 54.999 53.999 52 52 52.999 52.999 53.999 53.999 54 54 55 55 54.001 55 55.999 55.999 55.001 56.001 58 58 58.999 58.999 57.999 56.999 55.999 55.999 56.999 55.999 55.001 60.998 67.996 68.996 69.996 69.995 68.995 69.996 70.997 70.999 71.001 71.001 71.001 72.001 74 73.001 71.001 71.001 70 69.001 68.001 69.001 70.002 70.002 71.001 71.001 71.001 70.999 70.998 70.998 71.996 70.998 69.001 69.003 68.005 69.003 71.001 69.002 67.003 67.003 67.004 70.003 73.003 73.002 73.001 74.001 75 75.001 75.001 75.001 75.001 75.001 76.001 77.999 80.998 80.998 80.999 79.999 78 73.001 67.003 67.001 66.001 67.001 68.001 70 73 74 74.999 74.999 74.001 74 73 73 72.001 72.001 71.001 71.001 70.001 70.001 70.001 71 72 72 72.001 72.001 72.001 73.001 74 75 76 77 78 79 81 81 80.001 81.001 83 83.001 84.001 84.001 84 83.999 82.999 81 79.001 77.001 75.001 75.001 76.001 76.001 75.001 79.001 84.001 88.001 92.001 93.001 94 93.002 91.004 89.002 86.001 85 82.999 82.999 81.999 81.999 80.999 80.999 79.999 78.999 77 75.999 74.999 74.999 75.999 76.999 78.998 78.998 77.999 77.999 77.999 77.999 76.999 77.999 78.998 77.998 76.998 75.999 74.999 74.999 75.999 75.999 75 75 74 74 74.999 74.999 73.999 73.999 72.999 72.999 71.999 71.999 71.998 70.999 69.999 69.999 68.999 68.999 68 67.001 66.001 66.001 66.001 66.001 67 67 66.999 67 68.001 68.001 69 69 68.001 68.001 67.001 68.001 69 69 68.999 69 70 70 70.001 70.001 70.001 70.001 71 71 70 70 70.999 70.999 70 70 70.001 69.001 68.001 68.001 68.999 68 67.001 66.002 65.002 66.002 67.002 67.002 67.001 68.001 69.001 69.001 70.001 71 71.999 72.999 74 73.001 72.001 72.001 73 73 73.001 73.001 73 73 72.001 73 74 75.999 77.999 76.999 75 74.001 73.001 73.001 73.999 73.999 74.999 74.999 75.999 75.999 76 76 75.999 75.999 76.999 77.999 79.999 80 79.002 79.001 78.001 78.001 78.001 78.999 79.998 78.998 77.999 78 78.001 79.001 80.001 81 81.999 82 81.001 80.002 78.002 79.001 79.999 80.999 81.999 81.999 82.999 82.999 83.999 83.999 83.998 83.999 84.001 84.001 83.001 83.001 83.001 83.001 83.999 83.999 83.999 83.999 83.999 83 82.001 83 83.999 83.999 84 84 84.001 85.001 87.001 87.001 88.001 89 90 90 90.999 91.999 93.998 93.998 93.999 95 97 101 105.999 108.999 112.998 118.995 124.993 124.993 124.993 120.996 116 116.001 115.004 115.004 114.006 114.004 115.002 113.002 111.002 111.002 112.001 111.001 110.002 110 110.997 105.997 100.997 98.998 97 95.999 94.999 94.999 94.999 94.999
23.999 23.001 24 25 25 25 25 25 25 25 25 25 25.002 26.003 30.001 34.999 34.999 35.999 35.999 35 35.001 36.001 36.002 37.002 34.004 31.005 32.004 34.002 36.001 38.999 36 33 33.001 34.001 34 33 33 33.999 34 35 35 35.999 36 36.001 35.001 34 34 34 34 34.999 35 36 36 36.001 36.001 36.002 36.002 35.002 35.002 35.001 36.001 37 37 36 35.001 33.001 33.001 34.001 35.001 36.001 36 35.999 35.999 34.999 34.999 35.999 35.999 36.999 36.999 35.999 37.001 38.003 39.003 40.005 41.004 43.003 42.002 41.002 41.001 40 42.999 46.998 44.999 42.999 44 46 46.001 46.001 45.001 43.001 40 36.999 37.998 39.998 39.998 38.999 39.999 40.999 40.999 41.999 42.999 44 45 47 48 49.999 50.999 51.999 52.999 53.999 52.999 51.998 51.999 52.999 51.999 50.001 50.001 50.002 50.002 51.001 51.001 51 50.999 50.999 50.999 50.999 50.999 50.999 49.999 49 48.001 47.002 48.002 49.002 51.002 53.002 52.001 51.001 51.001 50.001 51 52.999 52.999 51.999 52 52.001 52.002 53.002 53.002 54.001 54.001 55 55 55 55 55.001 55.001 55.999 56.999 57.999 57.999 57.999 58 57.002 56.001 55 55 55 55 55.999 58.998 61.996 62.996 63.995 61.997 59.998 62.997 65.996 68.996 71.996 71.997 72.998 72.999 73.999 73.999 72.999 71.999 70 70 69.001 71 72.999 73 72.001 72.001 72.001 70 68 66.999 65.998 67.999 71 73.999 76.998 74.999 73 72.999 72.001 73 74 75.999 78.999 76.999 74.999 74.999 74.999 75.999 77 76.999 76.998 76.999 76.999 76.999 77.999 77.999 78.998 78.999 78.001 75.001 71.002 69.001 67 68 69 71 73.999 73.999 74 74 75 74.001 73.001 73.001 74.001 74.001 73.001 72.001 71.001 71.001 71 71 71.999 71.999 72.999 73 74 74 74 75 76.001 77.001 78.001 79.001 81 81.001 81.001 82.002 83.003 84.002 85 84.999 83.999 82.999 81.999 80.999 79.999 78 76.001 76.001 76.999 76.999 76.001 81 86 89.999 93.999 93.999 94 95.999 97.999 93 88.001 85 81 80.999 80.999 79.999 78.999 78.998 77.998 76.998 75.998 74.999 73 73.999 74.999 74.999 75.998 75.999 76.999 76.999 76.999 76.999 75.999 75.999 75.999 74.999 73.999 73.999 73.999 73.999 73.999 73.999 74.999 74.999 73.999 73.999 73 73 72.999 72.999 71.999 71.999 70.999 69.999 68.999 68.999 67.999 67.999 67 67 67.999 67.999 67 67 68 67.999 66.999 67 66.001 67.001 69 69 69 69 69.001 69 68.999 69 69.001 69.001 68.001 69.001 70.001 70.001 71.001 71.001 71 71 71 71 70.001 70.001 70.001 70.001 70 70 70.999 70.999 70 69.001 68.001 68.001 69.001 69.001 69 69.001 70.001 70 69 69.001 70.001 70.001 71.001 71.001 71 72 73.999 73.999 72.999 73 73.001 73.001 74 74 73.001 73.001 72.999 73 74 74.999 75.999 75.999 75.001 75.001 74.001 74.001 73.001 73.001 73.001 74.001 74.999 75 76 76 75 75.001 76.001 77.001 78.999 80 82 81.001 80.001 80 79 78 76.001 76.001 77 78 79 79.999 80.999 80.999 80.999 81.999 82.999 82.999 82 81 79.001 79.001 79.999 80.999 81.999 81.999 81.999 82.001 81.004 83.005 85.006 85.005 84.004 84.003 85.002 84.001 83.001 83.001 83.001 83.001 83.002 83.002 83.002 83.001 83.001 83.001 84.001 84.001 85.001 87 88.998 88.999 88.999 88.999 89.999 89.999 88.999 89.999 90.999 90.999 92 95 98 100.999 103.998 106.997 109.996 110.996 112.995 112.997 112.998 113.998 114.998 117.997 120.997 122 124.002 121.003 118.004 117.003 115.002 114.001 112.999 112.998 112.997 109.997 105.997 100.999 96.001 96.001 96.001 95.001 94 94 94 93.999
23.001 24.001 24.001 25.001 25 24.999 24.999 25 25 24.999 24.999 25 27.999 30.999 31.998 33.995 33.997 33.999 33.999 35 36 37.999 38.999 39.999 39.999 39.998 38.999 38 37.999 36.999 34.999 32.999 33.998 34.997 33.998 33 33.001 33.001 34.001 35.001 35.001 35.001 36 36.999 35.999 34 34 33.999 34 34.001 35 35.999 35.999 36.998 37.998 38.998 38.998 37.999 37.999 37.001 37.001 37 36.999 35.999 35.999 35.001 35.001 36.001 36.001 36.999 35.999 34 33.999 34 34 34.999 34.999 34.999 34.999 34.001 38.001 43.001 45.001 48 47.999 47.999 46 44 42.001 40.001 41.999 43.997 42.998 40.998 43.996 46.995 46.995 47.995 45.997 43.998 39.999 35 35 36 36.001 37.001 38 38.999 39.999 41 42 43.999 44.999 46.999 47.999 48.999 48.999 49.999 50.999 51.999 51 49.001 50.001 51.001 51.002 52.003 52.003 53.002 53.002 52.001 52 50.999 50 49 49 49.999 49.999 48.999 49 49.001 49.002 50.003 51.002 52.001 53.999 55.998 53.999 52 52 51 51.001 51.001 51.001 51.001 52.001 54 54.999 55.999 55.999 54.999 54.999 55.001 55.001 55.001 55.001 56 56 55.001 55.002 56.002 56.002 57.001 58 59.998 57.999 55 54.999 55 55 54.001 55.001 55.999 55.999 55.999 56 57 57.999 58.999 61.997 64.996 66.996 69.996 70.997 71.999 71.999 71.001 71 70 70 71 71 72 72.999 73.999 73.997 72.996 69.998 66.999 65 62 66.999 71.999 73 74.001 73 71.999 71.999 72.999 73 74 74.999 76.996 74.998 72.999 72.999 74 75 76.999 76 74.001 75.001 76.001 76.002 77.002 76.001 74.999 76.999 78.998 76.998 73.999 70.999 67 67.999 69 70.999 72.999 73 74.001 74.001 75.001 75.001 75.001 75.001 75 75 74.001 74 73 72.001 71.001 71.001 71.001 71.002 72.002 73.002 74.002 74.002 74.001 75.001 77 78.001 80 81 82.001 82.002 83.004 85.003 88.002 87.001 85 84 82 82 81 80 78 77.999 77.999 76.999 75.001 76.001 77.001 80.999 85.998 88.998 92.998 92.998 93.998 94.998 95.998 93 89.002 85.001 80 79.999 79.998 78.999 77 76 75 73.999 72.999 72.999 72.999 72.999 72.999 72.999 73 73.999 75.998 75.998 74.999 74.999 74.999 74.999 74.999 74 73.001 73.001 73.001 73 72.999 72.999 73.999 73.999 73.001 73.001 73 73 72.001 72.001 71.001 70 68.999 68.999 68 68 67.001 67.001 67.001 67.001 67.001 67.001 67.001 67.001 68.001 67.001 66.002 67.001 68.001 68.001 68.999 68.999 68.999 68.999 70 69.001 68.001 69.001 70.001 70.001 70.001 70.001 71.001 71.001 72.001 72 71 71 71 71 70.999 70.999 71.999 71 70 70 69 69 69.999 69.999 69.999 69.999 70.999 69.999 68.999 70 71.001 70.001 69.001 70 70.999 70.999 71.998 71.999 71 72 73 73 72.001 73.001 74.001 74.001 74 74 74.999 74 72.001 73 74 74 74.999 74.999 75.999 75.999 74.999 74.999 73.999 73.999 74.999 74.999 74 74.999 75.999 75.999 75.001 76 77.998 77.998 77.998 79.998 81.999 81.999 81 80.001 79.001 78.001 77.002 77.001 77 77.999 78.999 79 80 80 79.001 80 80.999 81 82.001 81 79.999 79.999 79.001 79.002 80.003 80.003 80.003 83.004 87.006 91.003 95.001 93.002 91.003 90.002 88.002 86.002 84.001 84.001 83.999 84.999 86.998 86.998 85.999 85 84.001 85.001 85.999 85.999 86.999 86.999 85.999 86.999 87.999 88 88.001 88.001 88.001 88.001 89.001 90.001 92 94.999 97.999 98.999 100.998 101.998 103.998 103.999 105 107.002 109.005 110.003 111.001 113.999 116.996 121.996 126.996 125.997 124.997 121.998 119 115 111 109.999 107.998 104.999 101 99 97 97 96.999 95.999 94 93.999 93.998 92.999
24.001 24.999 24.999 25.999 24.999 23.999 24 25.001 25 24 24.002 25.003 27.003 29.003 28.003 26.003 29 31.996 32.996 34.996 35.997 36.998 36.999 38 38 37 36.999 37.996 36.997 34.998 33 31.001 31.001 30 31 33 34.001 35.001 35.001 36.001 36.001 36.001 36 35.999 35 34.001 34.001 33.001 34.001 35.002 35.001 34 34 33.999 34.999 35.998 35.998 36.998 36.999 37.999 37.999 37 36 34.001 35 35.999 35.999 36.999 36.999 35.999 34.999 33 32.999 33.999 33.999 33.999 34 34.001 34.003 35.005 40.003 46 46.999 47.998 46.999 45.999 44.999 44 43.001 41.003 40.002 39 39 38 38.001 39.001 39.001 39.999 39.998 39.997 37.998 35 35 36 36.999 37.999 37.999 36.999 38.999 41 42 43 44 46 46.999 47.999 48.001 48.002 49.002 51.002 51.002 51.001 52.001 53 54.999 56.999 56.999 56.999 55.999 54 52.001 50.001 50.001 49.001 49.001 48.001 48.001 48 48.999 50.999 52.998 54.998 54.998 53.999 53 52 51.999 51.998 51.999 51.001 52.001 53.002 53.001 51.999 52.999 54 54 54.001 54.001 53.002 54.001 55.999 55.999 56.999 56.999 56 56 56.999 57.999 59.999 58.999 57.999 57.999 56.999 56 54.001 54.001 55.001 55.001 56 56 55.001 55.001 55.001 56 57 57 57 57.001 58.001 60 63 65.999 69.997 70.997 71.997 70.998 69.998 69.999 70.999 70.999 71.999 71.998 71.997 68.997 65.997 65.998 64.999 63.999 62.001 66.001 71.001 73 75 73 70.001 71 71.999 72.999 74 72.999 70.999 70.999 70.999 72 74.001 75.001 76.001 75.999 75.998 76.999 78 78.999 80.999 77.999 74 74.998 75.996 73.999 72.002 69.002 66.001 67.001 69 70.001 72 73 75 76 77.001 77.001 76.001 76 75 74.999 74.999 73.999 73.001 73 72 72 71.999 73.999 76 76.999 77.999 77 75.001 76.001 78 79 80 81 83 86.001 90.002 91 91.998 88.999 85 84 82 81.999 80.999 80 78.002 77.002 76.001 76.002 76.002 77.002 78.002 80 82.998 85.997 89.996 89.997 90.997 91.996 92.996 92.996 91.996 85.997 79.999 78.999 77 76.999 76.998 75.999 75 73 71 71 71 71 72 72 72.999 72.999 72.001 72.999 73.998 73.998 72.999 72.999 72.999 73.999 74.999 74.998 73.998 72.999 72.001 72.001 73 73 74 74 73 72.999 72.999 72.999 71.999 70 68 68 68.001 68.001 68.001 68.001 69 69 68.001 68.001 68.001 68.001 69.001 69.001 69.001 69.001 69 69 68.001 68.001 67.001 68.001 70 70 70.001 70.001 71 71.001 71.001 71.001 72.001 72.001 73.001 72.001 71.001 71 70.999 70.999 69.999 69.999 70.999 70.999 69.999 69.999 69 69 68.999 68.999 68.001 69 70 69.001 68.001 70 71.999 70.999 69.999 69.999 69.001 69.001 69.001 70.001 71.001 72 72.999 73 73.001 74 75 75 74 74 73.999 73.999 73.001 73 73.999 73.999 73.999 73.999 74.999 73.999 73.001 73.001 73.001 73.001 73.999 73.999 73.999 73.999 74.998 74.999 75.999 75.999 75 75 75 76.999 79.999 79.999 80.999 80.999 79.999 79.999 80 79 77.001 77.001 78.001 79 79.999 79.999 80 80 79.001 81 82.998 81 79 79.001 80.002 83.002 86.003 86.004 86.005 91.003 97 97 97 97.001 96.002 94.003 92.005 89.003 86 85 83.001 83.001 84.001 84.001 85 85 86 85.999 84.999 84.999 85.999 85.999 85.001 86.001 87.001 88.001 89 89 89.999 89.999 89.999 90.999 92 93.999 95.999 96.999 97.999 99 101 103.002 105.005 111.002 118 115.999 112.998 111.998 110.998 115.996 120.994 119.995 118.996 118.996 117.997 113.998 109.998 107.998 104.998 102.999 100 99.001 97.001 97 95.999 95 94 93.001 91.002 91.001
24.999 24 24 24 23.001 22.001 24 25.998 24.999 23.999 26.999 30.999 32.999 35 33.001 31.002 29.003 26.004 27.002 28.001 30.999 33.997 35.998 37.999 37.999 36.999 34.998 31.998 31.998 30.999 31.999 32.999 31.999 30.001 31.001 33.001 35 37 37.001 38 38 37.001 36.001 35.001 35 34.999 34.999 34 35.999 37.999 36 34.001 34.001 33.001 33.001 33.001 33.001 34.001 35.001 36.001 36.001 37.001 36.001 35.001 35.001 35 35.001 36.001 35.001 34.001 33.001 32 32 32 32 32.999 33.999 34.999 38.999 43.999 44.999 46.999 46 45.001 45.001 44.001 44.001 44 44.999 45.999 43 39.001 38.999 37.998 38.998 40.998 39.999 39 37.001 35.001 35.001 35.001 35.001 36.001 36.001 36.999 37 36.001 38.001 41 42 43 44.001 46 46.001 47.001 49 51 52.999 54.997 53.998 52.998 52.998 52.999 54 55.001 55.001 55.001 55 53.999 52.999 51.999 50.999 50 49.999 48.999 48.999 48.001 48.001 48.999 49.999 51.998 51.998 52.999 52.999 51.999 50.999 49.001 51 52.999 53.999 55.998 54 51.001 52.001 54 54 55 55.999 56.999 55.999 54.999 54.999 54.999 55 56 56.001 56.002 57.001 57.999 56.999 56 56 56.001 56.001 56.001 56 55.999 55.999 56.001 56.001 56 56.001 56.002 56.001 57 57 57 58 60 61.001 63.001 63.999 65.997 65.998 66.998 66.998 65.998 67.998 69.999 69.998 70.996 68.997 66.999 64 61.001 62.001 63.002 63.002 63.001 68.001 74 73.999 74.996 72.998 70.998 70.999 71.001 72.001 73.999 71.998 68.997 68.998 68.999 72 76 76.001 77 75.001 73.002 75 77.999 77.998 78.997 75.999 73.001 72.003 70.005 72.003 74.999 72 68 68.999 69.999 70.999 72 73.001 75 76.001 78 78.001 77.001 76.001 75.001 74.001 73.001 73.001 73.999 72.999 71.999 71.999 71.001 73 75.999 75.999 76.998 76.999 76.001 77.001 79 79.002 80.003 81.003 83.003 88 92.997 90.999 89 87 85 84.001 82.002 81.002 80.001 80.001 81.001 80.001 78.002 79.001 80.001 80.001 80.999 80.999 80.001 81 82.998 83.998 85.997 85.997 86.995 85.995 84.995 80.998 77 76.999 75.999 74.999 73.999 73.999 74.998 72.999 71 70.999 70.999 70.999 71.999 71.999 71.999 71.999 72.999 71.999 71 71 71.999 71.999 70.999 71.999 72.999 72 71 71.999 72.999 72.999 73 73 74 74 73 72 70.999 70.999 71 69.001 67.001 68.001 69.001 69.001 69.001 69.001 69.001 69.001 70 70 70.001 70.001 71 71 70.001 70.001 69.002 69.001 69.001 69.001 69.001 69.001 70.001 70.001 71 71.001 71.001 72.001 73.002 73.002 73.001 73.001 74.001 73.001 72 71 69.001 69.001 69.002 69.002 69.002 69.002 69.001 69.001 69.001 69.001 68.001 68.001 69 69 70 69.999 69.999 69.999 70.998 69.999 68.999 68.999 69.999 70 71 71 72 72 72 73 74.001 74 74.999 74.999 73.999 74 73.001 73.001 74 73 72 71.999 71.999 71.999 72.999 72.999 73.999 73.999 73.999 73.999 73 73 73.001 73.001 72.001 73 74 74 75 75 75.001 76.001 78 79 80 79.999 78.999 79 80 79.001 78.001 78.001 78.999 79 79.001 79.001 80.001 80.001 81.001 81.001 80.001 80.001 79.002 81.003 83.004 87.003 92.001 93.001 95 96.001 97.001 97.001 97 98 99.001 99.001 100.001 93.002 86.002 85.001 84.001 84.002 85.002 85.001 85.001 85.001 86 85.001 83.002 84.001 85.001 85.001 86.001 87.001 89 89.001 89.001 89.001 89 89 89.001 90 91.999 92.999 94.999 95.999 97 99.002 102.003 107.002 113.001 115 117.999 114 110.001 109.003 107.005 109.003 112.001 111.999 111.997 111.996 111.995 109.997 106.998 104 101.001 101.001 100.001 100 98.999 97 95.001 95.001 94.001 94.001 94 93
23 24 24.001 24.001 24 23.999 23.999 22.999 22.999 23 25.999 29.997 31.998 34.998 34.999 34.999 34 33.001 31.002 29.002 29.002 29.002 32.999 36.996 35.997 34.998 32 29.001 29.001 30.001 30.001 31.001 31.002 32.002 33.002 35.002 36.002 38.001 38.001 38 38 37.999 37 36 35 34 34 33.999 34.999 36.998 35.998 34.999 34.999 34.001 34 34.999 34.999 35.999 36 37 37 37.999 37.999 37 36.001 35.001 36 37.999 37 36.001 34.001 32 32 31.999 31.999 30.999 31.999 33.999 37.998 42.997 43.999 46 46.001 46.001 46 44.999 44.999 43.999 43.999 44.999 43 41 38 35 35.999 36.999 37.998 38.998 37.999 36.001 36.001 36 36.999 37.998 36.999 35.999 36.999 38 39.999 41.999 42 43 44.999 46.998 47.999 49 49.999 50.999 50.999 49.999 49.999 50 50 50.999 53.999 56.998 56.999 56 54.999 52.998 51.999 50.001 50.001 50 49.001 48.001 48.001 49 49 48.001 48.001 48.001 49 50.999 50.999 49.999 49.999 49.999 50.999 52 52 52.999 52.999 52.999 52.999 54 54 55 55 56 55.001 54.001 54.001 54.001 55 55.999 56.999 58.998 57.998 56 56 56.001 56.001 57.001 57 56.999 55.999 54.001 55.001 57 57 56 57 59 58.001 57.002 57.001 57 57.999 59.998 61.997 64.996 62.997 60.999 62.001 64.002 64.003 63.005 65.003 68 66 64 64 64.999 63.999 62 64 66.001 66.001 65.002 70.002 75.002 72.001 69 69.001 68.002 70 72.999 72.999 72.999 69.001 64.005 66.004 68.004 72.003 77.001 77.002 77.002 77.002 76.002 76.002 76.002 75.001 73.999 74 75.001 76.998 78.996 76.997 73.997 70.999 68 68 69 70 72 74 76 77.001 79 79.001 79 77.999 76.999 75.999 75 74.001 73.001 72.001 71.001 71.001 72 72.999 73.999 74 74.001 75.999 77.999 78 79.001 82 85 86.002 88.003 88.002 89.001 89.001 88.002 87.002 85.002 85.001 85 84 82.001 82.001 82.001 82.001 81.001 81.002 81.003 81.003 80.004 80.004 81.003 81.001 79.999 79.999 80.999 79.998 77.998 77.998 76.998 76.998 76.998 75.998 74 73.999 72.999 72.998 71.998 70.999 69.999 69.999 70 70 70.999 70.999 70.999 70.999 70.999 70.999 71 71 71 71 70 70.999 71.999 71.999 70.999 71 72 72 72.999 72.999 73.999 73.999 72.999 72 70.001 70.001 71 70 68.001 69 69.999 69.999 70 69.999 69.999 69.999 70 70.001 71.001 71.001 71.001 71.001 72 72 72.001 71.001 70.001 70.001 71.001 71 70.999 71 71.001 72.001 73.002 74.002 76.001 76.001 75 74.999 74.999 73.999 72 71 70.001 71 72.999 72.998 72.998 71.998 70 70.001 70.003 70.002 69.001 69.001 69 69.001 70.001 69.001 68.002 68.002 68.001 68.001 68.001 68.001 69.001 70.001 71.001 71.001 72.001 72.001 72.001 73 74.999 73.999 72.999 73 73.001 74 74.999 74.999 73.999 73 72.001 71.001 70.001 70.001 71.001 71 71.998 71.998 71.999 71.999 72.999 72.999 74 74 73.001 73.001 74 74 74.999 75 76.001 77 78 79 80 79.001 78.001 79.001 80.002 80.003 80.004 79.003 78.002 79.001 79.999 80 81 81 81.999 81.999 81.999 82.001 82.003 86.002 90.002 92.001 95 95 95.999 96.999 97.999 97.999 97 98 100 101 102.001 95.002 88.002 87.002 86.001 87.001 88.002 87.001 86 86 85.999 85.999 86 86.001 87.001 87.001 87 88 89 90 91.001 90.001 89.001 89.001 90.001 90.001 91 92 93 95 97.001 102.001 107.002 111.002 116.001 116 115.999 114.001 112.004 114.003 116.002 115.001 113.998 109.998 105.998 104.998 103.999 103.999 103.999 102.999 102 101.999 100.999 99.999 98 96.999 95.999 95.999 95.998 94.998 93.998 92.999
23.001 24.001 25.001 25.999 24 22.001 22.001 22 22 23 24.001 25.002 28.002 32.002 33.002 34.002 34.002 34.001 34 33 33.001 33.001 32.002 31.002 31.001 30.999 30.999 31 31 32 32.001 33.001 34.001 36 37 38.001 39 40 39.001 38.001 38.001 37 37 36 35 34 34 33 33 32.999 32.999 32.999 33.999 35 34 33 34 35 36 37 37 37 37 37 37 36.001 36.001 37 37 36.999 35 32 32 31.001 31.001 30.002 31.002 33 34.999 37.997 41.996 45.995 46.995 47.995 45.996 42.998 42.999 43.001 43.001 43.001 42.001 41.001 38.002 34.003 34.001 34.998 34.998 34.998 35.998 36.998 36.999 36.001 36.001 35.001 35.001 35.001 36.001 38 39.001 41 42 43 43.001 44.001 46 49 49 49 49 48.001 49 49.999 49.999 49.999 51.998 53.998 54.999 56.001 53.001 50 50.999 51.998 50.999 50.001 49.999 48.999 48.999 48.998 48.999 49.999 49.999 49 49 49 49.001 49.001 49.001 49.001 50.001 52 51.999 50.999 50.999 51 52 53.999 54 55 55.001 56.001 56.001 56 56 55 55 55.001 55.001 55.001 55.001 56 56.001 57.001 58.001 59.002 57.002 55.001 55.001 55.001 56 57 56.999 55.999 57 59 59 59.999 58.999 57 57.001 57.001 57.001 58 58.001 59.001 62.999 67.997 68.999 70.999 70 68.001 66.001 64.001 63.999 63.998 62.998 60.999 63.998 67.997 67.999 69.001 74 79 74.003 69.005 70.003 71.002 71.002 71.001 71 70.999 71.001 72.003 73.002 75.002 77.001 79.001 80.001 80.999 80 79.001 79.001 79.002 76.001 72.001 73.999 75.998 73.998 71.998 70.999 69 68.999 68 68.001 69.001 70 71.999 73.999 76.999 78 80 80 79.001 77.001 75.001 75.001 75 75 75.001 74.001 72.001 72.001 72.001 72.002 73.002 74.001 75 75.001 76.002 78.001 80 82 85 89 93.001 92.002 91.002 91.002 92.001 91.002 89.002 87.002 85.001 84.002 83.002 83.002 83.002 83.002 83.003 85.003 87.004 87.003 87.001 87.002 87.003 83.003 79.001 79 78.999 77 75 74 72.999 72.999 72.999 72.999 72.998 71.999 70.999 69.999 68.999 68.999 69 69 70 70 70.001 70.001 69.001 69.001 70.001 70.001 71 71 71.001 71.001 70.001 70.001 70.001 70.001 70 71 72 72 72 72 73 73 72 72 71 71 70.999 70 69.001 69.001 69.001 69.001 70 69.001 68.002 69.002 70.002 71.001 72.001 72.001 73.001 73 72 72.001 73.001 73 72 72.001 72.001 71.001 70.001 71.001 73 74.001 76.001 77 77.999 76.999 75.001 74.001 73.001 72.001 71 71 71.001 71 70.999 69.999 68.999 68.999 69 71.999 74.998 73 71.001 70.002 69.002 70.002 71.002 71.001 71.999 71 69.001 69.001 69 69.001 70.001 71 72.999 72.999 73.999 73.999 73.001 73.002 74.002 73.002 72.001 73 73.999 73.999 73.999 73.999 73.001 73.002 73.004 73.005 72.008 72.006 73.005 71.003 69.001 69.001 70.001 70.001 71.001 72.001 73.999 73.999 74 74 74 74 74 75 76.999 76.999 77.999 78.999 79.999 79.999 79 80.999 82.999 85 87.002 84.003 81.004 80.002 79.001 80 80.999 80.999 80.001 80.001 80.001 84 88 90.001 93.002 94.001 95.001 95.001 95.001 95.999 96.998 96.998 96.997 97.998 99.998 100.999 103 97.004 91.006 90.006 88.006 89.003 90.999 89.001 86.002 86.002 85.002 85.001 85.999 87 88.001 88.001 87.001 88.001 89.001 90.001 92 91.001 90.001 91.001 92 92.001 91.003 92.002 93.001 95.999 98.998 104.997 110.996 113.996 117.996 115.996 113.995 115.995 117.996 118.996 119.997 115.997 110.998 106.998 102 101.999 102 102 102.001 102 101.999 100.999 99 98.001 97.001 96.001 95.001 94.002 93.002 92.002 91.002 91.001
24.999 25.997 25.997 24.998 23.999 23 23 22.001 22.001 23 25.001 28.002 31 34.997 35.998 37.998 36.999 35.001 34.001 33.002 34.001 34.999 34.998 33.997 31.998 30 30 31 31.001 32.001 33 34 34.999 35.999 37 39 39 39.999 39.999 39.999 38.999 36.999 36.999 35.999 34.999 33.999 33.999 33 32.999 31.999 31.999 31 32.999 34.998 33.999 33 34 35.001 36 37 37 36.999 37 37.001 37.001 37.001 36.999 36.998 36.998 35.998 34 32.001 32.001 32.999 32.999 33.999 33.999 33 33 32.999 34.999 37.998 37.999 38.999 39 39.001 41 43.998 43.999 45 44.001 43.001 41.001 38.002 35.002 32.001 32.001 32 32.999 33.999 34.999 36.998 36.999 37 37.001 36.003 37.002 39 40 40.999 41.999 42.999 43.999 45.999 46.999 48.999 48.999 48.999 48.999 49 49 49 48.999 47.999 48.999 50.999 53.998 56.997 53.998 49.999 49.999 48.999 49.999 50.999 49 47 47 46.001 47 48.999 49 49.001 49.001 49.001 50 50.999 50.999 50.001 50.999 51.998 50.999 49 50 51.001 52.001 53.001 54.001 55.001 56 56.999 56.999 55.998 55.999 55.001 55.001 56.001 56.001 56.999 56.999 55.999 56.999 58.999 59.998 61.998 59.999 57.001 57.001 56.001 56.001 57 55.999 54.998 56.998 58.998 58.999 58.001 57.999 56.999 57.999 58.999 59 58.001 59.001 61 61.999 63.998 66.996 69.993 69.995 69.996 67.997 65.997 62.998 60 60 59.001 60.999 62.999 66.999 71 74.999 78.998 77.999 77.001 76.001 75.001 74.001 72.999 71.001 69.002 73 77 77 77.999 78.999 80.999 80.998 79.998 79.998 79.999 80.999 81.999 78 74 72.999 71.998 70.999 69 69 68 68 68.001 69.001 70.001 70.001 71.001 73.001 76.001 78 80 80.001 80 78.001 76.002 76.001 75.001 75.001 76 75.001 73.002 73.002 74.001 75.001 76.001 76.001 75.002 77.001 80 80.001 81.002 83.002 86.002 90 94.999 94.999 94.999 94.999 94 94 93 90.001 87.002 87.001 86.001 86.001 86.001 87.001 88.002 91 94 91.999 88.998 90.997 92.996 86.999 80.002 79.001 77 76 74.999 73.999 72 71.999 70.999 70.999 69.999 69.999 69 69 68.001 68.001 69 69 70 70 70.999 71 71.001 71.001 71.999 71.999 71.001 71.001 72 72 72.001 72.001 71.001 71.001 70.001 71.001 72.001 72.001 72.001 72.001 72.999 72.999 71.999 71.999 70.999 70.999 69.999 70 71 71 70.001 70.001 70.001 70.001 71 71.999 72.999 72.999 73.999 73.999 74 73.001 72.001 73 73.999 73 72.001 73.001 74 73.001 72.001 73.001 74.001 76 77.999 77 76 76 76 75 73.999 72.999 71 71 72 71 70 69 68 68 68.999 69.998 70.998 71.998 72.998 72.998 72.999 73.998 74.997 72.998 70.999 70.999 70 70 69.001 70 71 71 72 72 72.001 73.001 75 76 77.999 76.001 74.001 73.001 72.001 72.001 72 72.999 73.999 77 80 81.999 84.998 82.997 80.996 75.999 70.002 70.001 71 71.999 72.999 72.999 72.999 73 74 74 74.001 74.001 74 74.999 75.999 75.999 76 76.999 78.999 78.999 79 79.999 80.999 84.998 89.996 88.997 86.998 84 81.001 80.001 79 79.999 80.999 81 82.001 85 88.999 92 96.002 96.002 96.003 96.002 97 95 93 93 92.001 94 96 99.999 103.998 102.999 101.001 100.001 98.003 94.002 90 90 90 89 88 87.001 85.002 87.002 89.001 89.001 89.002 90.002 91.002 91.002 92.001 92.001 92.001 92.002 92.003 94.002 96.001 96.002 95.004 95.003 96.003 100 103.997 106.997 110.996 108.997 105.998 107.997 110.995 112.994 114.994 110.997 106.999 104 101.001 101.001 102.001 102.001 103.001 102.001 101.001 100.001 99 99 98.999 98.001 97.002 97.002 97.002 96.002 94.002 93.002
22.999 21.001 21.001 22.001 22.001 22.999 22.999 23 23 23 26.998 30.997 30.997 30.997 31.997 33.996 34.996 35.997 35.997 35.997 34.997 33.998 31.998 29 29 29.001 30.001 31.001 32.001 33.001 33.001 34.001 34.001 35.001 36.999 38.998 38.998 38.998 38.998 37.998 36.999 35 34.999 33.999 33.999 32.999 32.999 32.999 32 31 31 31.001 31.001 32.001 32.001 33.001 34.001 36 36 37 37 36.001 37 38 37.999 37.999 36 34 33.999 32.999 32.998 32.998 32.998 31.999 32 32.001 32.001 33.001 33.001 32.001 33.001 34.001 36 38 39 40.999 40.999 40.998 42.997 44.997 44.997 43.998 42.999 41.002 38.005 34.008 33.008 32.007 32.005 33.003 33.003 34.002 35.002 37 38.999 40.999 40.999 40 40 39.001 40 41.999 42.999 44 44.999 46.999 46.999 48 48 48.999 48.999 48.999 48 47 47.999 48.999 49.998 51.998 49.999 48 48 47 47.999 48.999 47.999 46.999 47.001 47.002 47.002 48.002 49.001 50 49.999 49.999 49.999 50.001 50.001 51 50.001 49.001 49.001 48.001 49.999 52.997 53.997 54.997 54.997 55.997 55.997 55.998 54.998 53 54.001 56 56.002 57.003 57.002 56.001 56 54.999 55.998 56.998 56.998 57.998 57.998 58.998 57.998 56.999 56.999 56.999 55 52.001 54 55.999 56.999 58.999 57 55.002 56.001 57.999 58.999 59.999 60.999 61.999 60.999 59.998 59.998 58.999 61 63 62 60 59.999 59.999 59.999 59.999 59.999 60.999 65.999 71.998 73.998 75.999 76.999 78.999 78 77 74.999 71.998 71.999 72.001 74 77 77 77.001 78 78.999 78 77.001 77.001 78.002 79.001 81 78.001 74.003 72.002 69.001 69.001 69.001 69.001 68.001 68.001 69.001 70.001 71.001 72.001 73.001 75.002 78.002 79.002 81.001 81.001 80.001 80.001 79.001 78.001 77.001 77.001 76.002 76.002 77.001 76.001 75.001 76.001 77.002 78.002 79.002 79.002 80.002 82.002 84.002 86.001 89 90.999 92.999 92.999 92.999 92.999 93.998 93.998 92.998 91.998 89.998 88.998 87.998 88.001 88.003 89.003 91.003 92.003 94.002 90.003 86.003 86.002 87.001 85 82 79.999 76.998 75.998 73.999 72.999 70.999 70.999 69.999 69.999 68.999 69 69.001 69.001 69.001 69.001 69.001 69.001 69.999 69.999 70 70.999 71.999 71.999 71 71 72 72 72.001 72.001 72.999 72.999 72 72 71.001 72.001 72.999 72.999 72.999 72.999 71.999 71 70 70 70.001 70.001 69.001 70.001 71.001 71.001 71.001 71.001 71 71 71.001 71.001 72.001 72.001 73.001 73.001 74.001 74.001 73.001 73.001 73.001 73.001 74 74 73.999 73.999 74 74.999 75.999 75.999 76.999 76.999 75.999 75.999 75.998 74.999 73.001 72.001 71.001 71.001 71.999 71 70 69.001 68.001 68.001 67.001 67.001 67.001 68.001 69 69.999 71.998 70.999 69.999 69.999 69 69 70 70 70.001 70.001 71.001 71.001 72.001 72.001 73 74 75 75.999 76.998 76.998 75.998 74.998 73.999 72.999 71.999 71.999 72.998 76.996 80.995 80.995 81.995 77.997 73.999 72.999 71.999 72 71.001 71.001 71.001 71.001 71.999 73.001 74.002 74.002 75.001 75.001 74 74.001 75.001 75.001 76 76 76.999 77.999 79 79 80 81.999 83.998 83.998 82.999 82.999 82 81.001 79.001 79.002 80.002 81.002 83 85 87.999 93 99 100 100.999 98.999 96.999 95.001 93.002 93.001 93 93.999 95.998 97.998 100.996 100.997 101.996 101.998 103 97.001 90.002 90.001 90.002 89.002 88.002 88.003 89.003 90.003 91.002 91.002 92.001 93.001 94.001 94.001 93.001 93.002 94.003 95.003 97.003 97.003 98.003 99.002 101.002 101.003 101.005 100.004 99.003 102.001 104.999 104 103.001 103.001 102.002 103.001 104.999 104.999 105 104.001 103.001 103.001 103.001 103.001 104 104 103.001 101.001 99.002 99.002 98.002 99.001 101 101 100.001 99.001 97.001 96.001
22.001 22.002 22.002 23.001 23.001 22.001 22.001 23.001 23.001 23.002 24.001 26 26.001 26.001 27 27.999 28.999 30.998 30.998 29.999 29.999 29.999 29 28.001 29.001 31 32 33.001 33.001 34.001 35 36 36 36 36 35.999 35.999 35.999 35.999 34.999 34.999 33.999 33 32 32 31.001 31.001 32 32 31.001 31.001 32 32.999 33.999 33.999 34 34.999 35.999 35.999 36.999 37 37.001 37.001 38 37 35.999 34.999 32.998 31.998 30.998 29.999 28.999 30 31.001 32.001 33.001 33.001 34.001 34.001 34.001 35 35.999 36.998 37.998 38.998 39.996 38.997 36.999 37.999 39.999 39.999 39.998 41.998 44.998 45.998 47.998 46 44.002 41.004 38.005 38.005 38.005 38.003 37.002 38.001 39.998 39.998 39.998 39.999 40 40.001 41.001 42.001 44 44.001 45 46 48 48 48 48 47.999 47.999 46.999 46.999 46.999 46.999 47.998 47.998 47.999 47.999 46.999 46.999 46.999 46.999 46.001 48 49.999 49.999 50.999 50.998 49.998 48.998 47.999 48.999 50.998 50.999 50.999 50.999 50 50 50 48.999 47.999 48.999 49.999 49.999 50.999 50.999 51.999 51.999 52.999 54.999 56.999 59 62.002 60.002 58.002 56.002 53.002 53.002 54 53.999 53.999 53.999 54.999 54.999 55.998 55.998 54.999 54.999 54.001 54.001 54.999 55.999 56.998 56.998 57.998 57.998 56.999 57.999 58.998 58.998 59.998 58.999 57 56.999 57.999 61 64.001 62.001 59.001 59.001 58.001 58 58.999 58.999 59.999 63.997 68.995 70.998 73.999 75.999 77.999 77.998 76.997 72.998 69 71 74.001 75.001 77 77 77.999 77.999 77.999 78 78.001 79 80.999 81 81.002 80.003 78.005 75.003 71.001 71.001 71.001 71.001 70.002 70.002 70.002 71.001 72.001 73 74.999 77.999 80.999 82 83.001 83.001 82.001 81.001 80.001 79.002 78.002 79.001 80.001 80.001 79.002 78.002 77.002 78.001 80 81.001 82.001 83.001 84.001 86 88 88 89 89.999 91.999 91.999 90.999 90.999 90.001 90.001 89 87.999 86.998 85.999 84.999 89 94 95.001 97 97.001 97.001 94.001 90.002 89 87.998 84.998 81.998 77.999 73 72.999 71.999 70.999 69 68.999 68 68 68 69 70 70 71 71 70.001 70.001 69.001 69.001 70 70 70.999 71 71.001 71.001 72.001 72.001 73.001 73.001 72.001 72.001 72.001 72.001 73 73 72 72 72 72 71.001 71.001 70.001 70.003 71.005 71.003 70.001 71.001 72.001 72.001 73.001 72.001 71.001 71.002 72.002 72.002 73.001 73.001 74.001 74.001 75.001 75.001 74.001 74.001 74 74 73.999 73.999 73 73 74 74 75 75 75.999 75 74.001 74.001 73.001 73.001 73.999 73.999 73.001 72.002 71.003 71.002 70.001 70.001 70 70 69 69 69 69.001 69.001 69.001 69.001 69.001 69.001 69.001 69.001 69.001 70.001 70.001 71.001 71.001 72.001 72.001 73 73 73.001 74 74.999 74 73 73 72 72 72 71 69.999 69.999 69 69.999 71.999 71.999 72.999 72.999 72 72 71.001 72 72.999 72.999 73 72.001 71.001 74 76.999 76.999 76.999 75.999 74.001 75 75.999 75.999 75.999 76 76.001 77.001 79 79.001 80.001 80.001 80.001 80.002 81.003 81.005 82.005 82.004 81.003 82.003 84.003 84.003 84.002 85.002 86.002 93 99.998 99.999 99.001 97.001 95.001 96.001 96.999 94.999 92.998 92.998 92.998 93.998 94.998 94.998 95.998 98.997 102.997 98 92.004 92.003 93.002 93.002 92.002 93.001 95 95.001 94.001 94.001 94.001 94.001 95.001 95.001 95.001 97.001 100.001 101.001 102.002 102.002 103.002 103.001 104 105.999 108.998 107 104.004 104.002 103.001 104.001 105.001 105.001 105.001 105.001 104 103.999 104.998 104.999 104.999 104.999 104.999 104.999 104 104 104.001 103.001 102.001 102 101 101 100.999 100.999 101.998 99.998 97.998 96.999
